ply
format ascii 1.0
comment PCL generated
obj_info is_cyberware_data 0
obj_info is_mesh 0
obj_info is_warped 0
obj_info is_interlaced 0
obj_info num_cols 44084
obj_info num_rows 1
obj_info echo_rgb_offset_x 0
obj_info echo_rgb_offset_y 0
obj_info echo_rgb_offset_z 0
obj_info echo_rgb_frontfocus 0.0
obj_info echo_rgb_backfocus 0.0
obj_info echo_rgb_pixelsize 0.0
obj_info echo_rgb_centerpixel 0
obj_info echo_frames 1
obj_info echo_lgincr 0.0
element vertex 1236
property float x
property float y
property float z
property uchar red
property uchar green
property uchar blue
property float nx
property float ny
property float nz
property float curvature
end_header
11.5812 -4.27624 0.658848 0 0 0 0 0 0 0
11.5793 -4.12954 0.659664 0 0 0 0 0 0 0
11.5797 -3.92302 0.635001 0 0 0 0 0 0 0
11.5768 -3.69515 0.635265 0 0 0 0 0 0 0
11.5748 -3.54037 0.635143 0 0 0 0 0 0 0
11.6279 3.68442 0.500958 0 0 0 0 0 0 0
11.5768 11.7682 0.299392 0 0 0 0 0 0 0
11.6027 -6.75375 0.843314 0 0 0 0 0 0 0
11.6038 -6.6312 0.841147 0 0 0 0 0 0 0
11.6013 -6.47044 0.838361 0 0 0 0 0 0 0
11.6004 -6.31731 0.836928 0 0 0 0 0 0 0
11.6003 -6.18501 0.833573 0 0 0 0 0 0 0
11.5998 -6.04644 0.830228 0 0 0 0 0 0 0
11.5973 -5.88587 0.829821 0 0 0 0 0 0 0
11.5966 -5.74867 0.826413 0 0 0 0 0 0 0
11.5961 -5.61044 0.823913 0 0 0 0 0 0 0
11.5928 -5.45546 0.823859 0 0 0 0 0 0 0
11.5941 -5.28681 0.820318 0 0 0 0 0 0 0
11.5904 -5.12532 0.815031 0 0 0 0 0 0 0
11.592 -4.97938 0.817032 0 0 0 0 0 0 0
11.5891 -4.83547 0.80463 0 0 0 0 0 0 0
11.586 -4.67558 0.800254 0 0 0 0 0 0 0
11.5869 -4.53381 0.803036 0 0 0 0 0 0 0
11.5871 -4.39868 0.805623 0 0 0 0 0 0 0
11.5837 -4.25227 0.795075 0 0 0 0 0 0 0
11.5851 -4.09284 0.790317 0 0 0 0 0 0 0
11.582 -3.92452 0.789221 0 0 0 0 0 0 0
11.5816 -3.76792 0.782292 0 0 0 0 0 0 0
11.5787 -3.64022 0.782846 0 0 0 0 0 0 0
11.5765 -3.48961 0.780245 0 0 0 0 0 0 0
11.5764 -3.32959 0.780291 0 0 0 0 0 0 0
11.5742 -3.17699 0.777149 0 0 0 0 0 0 0
11.6241 3.69916 0.665146 0 0 0 0 0 0 0
11.6047 11.7643 0.460483 0 0 0 0 0 0 0
11.6046 -6.75293 1.054 0 0 0 0 0 0 0
11.6041 -6.63109 1.04931 0 0 0 0 0 0 0
11.6031 -6.46425 1.0483 0 0 0 0 0 0 0
11.602 -6.31306 1.03668 0 0 0 0 0 0 0
11.6017 -6.18237 1.03187 0 0 0 0 0 0 0
11.5994 -6.0428 1.03147 0 0 0 0 0 0 0
11.5964 -5.87627 1.02714 0 0 0 0 0 0 0
11.5968 -5.73462 1.02197 0 0 0 0 0 0 0
11.5954 -5.59497 1.02007 0 0 0 0 0 0 0
11.5924 -5.44356 1.01229 0 0 0 0 0 0 0
11.5916 -5.27424 1.02376 0 0 0 0 0 0 0
11.5912 -5.11375 1.01654 0 0 0 0 0 0 0
11.5903 -4.96949 1.00875 0 0 0 0 0 0 0
11.5887 -4.82735 1.01358 0 0 0 0 0 0 0
11.587 -4.6751 1.00486 0 0 0 0 0 0 0
11.5884 -4.53946 0.992255 0 0 0 0 0 0 0
11.5864 -4.39035 0.987775 0 0 0 0 0 0 0
11.5842 -4.23313 0.983118 0 0 0 0 0 0 0
11.584 -4.0815 0.986195 0 0 0 0 0 0 0
11.5811 -3.92047 0.97645 0 0 0 0 0 0 0
11.5805 -3.76332 0.985947 0 0 0 0 0 0 0
11.5777 -3.636 0.973811 0 0 0 0 0 0 0
11.5762 -3.46917 0.977969 0 0 0 0 0 0 0
11.575 -3.32474 0.986123 0 0 0 0 0 0 0
11.573 -3.10947 0.977459 0 0 0 0 0 0 0
11.6384 3.69509 0.831729 0 0 0 0 0 0 0
11.5799 11.7454 0.704735 0 0 0 0 0 0 0
11.6063 11.7652 0.660007 0 0 0 0 0 0 0
11.5993 -6.745 1.24256 0 0 0 0 0 0 0
11.5993 -6.62413 1.23782 0 0 0 0 0 0 0
11.5941 -6.46313 1.21942 0 0 0 0 0 0 0
11.6002 -6.32528 1.22042 0 0 0 0 0 0 0
11.5973 -6.18148 1.21173 0 0 0 0 0 0 0
11.5966 -6.03066 1.20537 0 0 0 0 0 0 0
11.5936 -5.87488 1.1901 0 0 0 0 0 0 0
11.5961 -5.74401 1.18923 0 0 0 0 0 0 0
11.5947 -5.6109 1.18796 0 0 0 0 0 0 0
11.5891 -5.45512 1.17214 0 0 0 0 0 0 0
11.5928 -5.2747 1.16865 0 0 0 0 0 0 0
11.5899 -5.12899 1.16078 0 0 0 0 0 0 0
11.5879 -4.97492 1.15267 0 0 0 0 0 0 0
11.589 -4.83546 1.15879 0 0 0 0 0 0 0
11.5871 -4.69146 1.15162 0 0 0 0 0 0 0
11.5868 -4.52472 1.16592 0 0 0 0 0 0 0
11.5854 -4.3813 1.16278 0 0 0 0 0 0 0
11.5826 -4.22144 1.15192 0 0 0 0 0 0 0
11.5827 -4.06659 1.16672 0 0 0 0 0 0 0
11.5798 -3.90622 1.14898 0 0 0 0 0 0 0
11.5794 -3.73428 1.17575 0 0 0 0 0 0 0
11.5767 -3.63178 1.16502 0 0 0 0 0 0 0
11.5751 -3.46461 1.17928 0 0 0 0 0 0 0
11.574 -3.26839 1.18168 0 0 0 0 0 0 0
11.6237 3.6942 0.965945 0 0 0 0 0 0 0
11.6193 11.7508 0.833093 0 0 0 0 0 0 0
11.601 11.7696 0.831096 0 0 0 0 0 0 0
11.6063 -6.74561 1.35476 0 0 0 0 0 0 0
11.6058 -6.61814 1.36515 0 0 0 0 0 0 0
11.6063 -6.4418 1.3472 0 0 0 0 0 0 0
11.5976 -6.28764 1.36391 0 0 0 0 0 0 0
11.5987 -6.16563 1.35144 0 0 0 0 0 0 0
11.5954 -6.0267 1.3478 0 0 0 0 0 0 0
11.5932 -5.86047 1.33469 0 0 0 0 0 0 0
11.5961 -5.72837 1.33526 0 0 0 0 0 0 0
11.5947 -5.58592 1.32802 0 0 0 0 0 0 0
11.5911 -5.43119 1.31409 0 0 0 0 0 0 0
11.5912 -5.25625 1.30504 0 0 0 0 0 0 0
11.589 -5.10008 1.30297 0 0 0 0 0 0 0
11.5898 -4.96691 1.29597 0 0 0 0 0 0 0
11.5883 -4.83263 1.277 0 0 0 0 0 0 0
11.5865 -4.68751 1.26873 0 0 0 0 0 0 0
11.5852 -4.56959 1.27148 0 0 0 0 0 0 0
11.5828 -4.40526 1.30798 0 0 0 0 0 0 0
11.584 -4.24261 1.30069 0 0 0 0 0 0 0
11.582 -4.09587 1.29323 0 0 0 0 0 0 0
11.5791 -3.92581 1.28293 0 0 0 0 0 0 0
11.5788 -3.78471 1.28234 0 0 0 0 0 0 0
11.5759 -3.60968 1.3398 0 0 0 0 0 0 0
11.6139 3.69849 1.14902 0 0 0 0 0 0 0
11.5966 11.7523 1.00023 0 0 0 0 0 0 0
11.5907 11.7657 0.953937 0 0 0 0 0 0 0
11.599 -6.73502 1.49267 0 0 0 0 0 0 0
11.5979 -6.60771 1.49638 0 0 0 0 0 0 0
11.5947 -6.4451 1.50342 0 0 0 0 0 0 0
11.6026 -6.29599 1.49985 0 0 0 0 0 0 0
11.6 -6.16494 1.48793 0 0 0 0 0 0 0
11.6036 -6.01838 1.51118 0 0 0 0 0 0 0
11.6001 -5.85427 1.49808 0 0 0 0 0 0 0
11.5993 -5.71978 1.50093 0 0 0 0 0 0 0
11.5994 -5.58247 1.49386 0 0 0 0 0 0 0
11.5926 -5.41776 1.48495 0 0 0 0 0 0 0
11.5925 -5.2514 1.47812 0 0 0 0 0 0 0
11.5917 -5.10507 1.45361 0 0 0 0 0 0 0
11.5902 -4.98615 1.47926 0 0 0 0 0 0 0
11.5881 -4.82301 1.46721 0 0 0 0 0 0 0
11.5882 -4.6704 1.44672 0 0 0 0 0 0 0
11.5862 -4.52708 1.43639 0 0 0 0 0 0 0
11.5835 -4.38392 1.47387 0 0 0 0 0 0 0
11.5836 -4.22342 1.44973 0 0 0 0 0 0 0
11.5816 -4.07772 1.44076 0 0 0 0 0 0 0
11.5786 -3.9074 1.43253 0 0 0 0 0 0 0
11.5785 -3.75022 1.41851 0 0 0 0 0 0 0
11.5764 -3.60895 1.41192 0 0 0 0 0 0 0
11.5743 -3.46459 1.40547 0 0 0 0 0 0 0
11.6345 3.69377 1.2587 0 0 0 0 0 0 0
11.6342 11.7508 1.04524 0 0 0 0 0 0 0
11.5962 11.7685 1.1336 0 0 0 0 0 0 0
11.6045 -6.73662 1.6571 0 0 0 0 0 0 0
11.5999 -6.61686 1.65842 0 0 0 0 0 0 0
11.6006 -6.45242 1.63332 0 0 0 0 0 0 0
11.5944 -6.324 1.6543 0 0 0 0 0 0 0
11.5952 -6.19039 1.62369 0 0 0 0 0 0 0
11.5969 -6.04545 1.63538 0 0 0 0 0 0 0
11.5914 -5.87033 1.62462 0 0 0 0 0 0 0
11.5931 -5.72829 1.63072 0 0 0 0 0 0 0
11.5918 -5.58729 1.61376 0 0 0 0 0 0 0
11.591 -5.43574 1.6171 0 0 0 0 0 0 0
11.5912 -5.26319 1.61274 0 0 0 0 0 0 0
11.5888 -5.13407 1.60108 0 0 0 0 0 0 0
11.5913 -4.94874 1.63376 0 0 0 0 0 0 0
11.5892 -4.79218 1.61892 0 0 0 0 0 0 0
11.5869 -4.66682 1.62493 0 0 0 0 0 0 0
11.5846 -4.52605 1.63116 0 0 0 0 0 0 0
11.5838 -4.33957 1.62807 0 0 0 0 0 0 0
11.5826 -4.18355 1.611 0 0 0 0 0 0 0
11.5808 -4.06767 1.61927 0 0 0 0 0 0 0
11.5781 -3.90693 1.60677 0 0 0 0 0 0 0
11.5772 -3.74944 1.60048 0 0 0 0 0 0 0
11.5751 -3.60456 1.59246 0 0 0 0 0 0 0
11.6238 3.69501 1.42882 0 0 0 0 0 0 0
11.627 11.7535 1.22813 0 0 0 0 0 0 0
11.61 11.7798 1.22535 0 0 0 0 0 0 0
11.6036 -6.73349 1.81405 0 0 0 0 0 0 0
11.6051 -6.61024 1.82116 0 0 0 0 0 0 0
11.604 -6.44872 1.82169 0 0 0 0 0 0 0
11.6011 -6.31031 1.812 0 0 0 0 0 0 0
11.6005 -6.16143 1.80781 0 0 0 0 0 0 0
11.5954 -6.02187 1.8147 0 0 0 0 0 0 0
11.5928 -5.85216 1.80534 0 0 0 0 0 0 0
11.5935 -5.7065 1.7919 0 0 0 0 0 0 0
11.5926 -5.56487 1.79155 0 0 0 0 0 0 0
11.5899 -5.40623 1.76973 0 0 0 0 0 0 0
11.5901 -5.25145 1.75452 0 0 0 0 0 0 0
11.5922 -5.13074 1.73819 0 0 0 0 0 0 0
11.5901 -4.98839 1.75716 0 0 0 0 0 0 0
11.588 -4.82495 1.73947 0 0 0 0 0 0 0
11.5864 -4.6756 1.7389 0 0 0 0 0 0 0
11.5843 -4.53304 1.77369 0 0 0 0 0 0 0
11.5842 -4.39317 1.76584 0 0 0 0 0 0 0
11.582 -4.23324 1.75195 0 0 0 0 0 0 0
11.5787 -4.05853 1.77561 0 0 0 0 0 0 0
11.5778 -3.93201 1.76001 0 0 0 0 0 0 0
11.5766 -3.72057 1.77525 0 0 0 0 0 0 0
11.5745 -3.57544 1.76582 0 0 0 0 0 0 0
11.6286 3.69391 1.57994 0 0 0 0 0 0 0
11.6095 11.7586 1.38398 0 0 0 0 0 0 0
11.5851 11.7759 1.39448 0 0 0 0 0 0 0
11.607 -6.73694 1.94981 0 0 0 0 0 0 0
11.598 -6.61024 1.94406 0 0 0 0 0 0 0
11.5981 -6.43811 1.94985 0 0 0 0 0 0 0
11.601 -6.29818 1.94608 0 0 0 0 0 0 0
11.5931 -6.16711 1.93826 0 0 0 0 0 0 0
11.5962 -6.00422 1.94077 0 0 0 0 0 0 0
11.5942 -5.84056 1.95636 0 0 0 0 0 0 0
11.5936 -5.71161 1.94428 0 0 0 0 0 0 0
11.5973 -5.56194 1.9605 0 0 0 0 0 0 0
11.5912 -5.39656 1.94016 0 0 0 0 0 0 0
11.5925 -5.25151 1.9296 0 0 0 0 0 0 0
11.5922 -5.1109 1.93181 0 0 0 0 0 0 0
11.589 -4.96432 1.92138 0 0 0 0 0 0 0
11.587 -4.81042 1.902 0 0 0 0 0 0 0
11.5851 -4.66476 1.88455 0 0 0 0 0 0 0
11.5832 -4.52579 1.90586 0 0 0 0 0 0 0
11.5841 -4.34561 1.88886 0 0 0 0 0 0 0
11.5823 -4.1882 1.908 0 0 0 0 0 0 0
11.5795 -4.06139 1.91272 0 0 0 0 0 0 0
11.5776 -3.91871 1.90012 0 0 0 0 0 0 0
11.576 -3.7714 1.90448 0 0 0 0 0 0 0
11.5747 -3.59764 1.92359 0 0 0 0 0 0 0
11.6426 3.69874 1.73118 0 0 0 0 0 0 0
11.5937 11.7599 1.53671 0 0 0 0 0 0 0
11.6038 -6.72935 2.12086 0 0 0 0 0 0 0
11.6012 -6.61051 2.11669 0 0 0 0 0 0 0
11.598 -6.43648 2.11366 0 0 0 0 0 0 0
11.5981 -6.29443 2.09868 0 0 0 0 0 0 0
11.5996 -6.15742 2.08023 0 0 0 0 0 0 0
11.596 -6.01504 2.05607 0 0 0 0 0 0 0
11.593 -5.85365 2.10275 0 0 0 0 0 0 0
11.5946 -5.7123 2.07628 0 0 0 0 0 0 0
11.5921 -5.57427 2.07837 0 0 0 0 0 0 0
11.5928 -5.40733 2.05698 0 0 0 0 0 0 0
11.59 -5.28214 2.10032 0 0 0 0 0 0 0
11.5914 -5.11216 2.09364 0 0 0 0 0 0 0
11.5875 -4.94632 2.07788 0 0 0 0 0 0 0
11.587 -4.8054 2.06285 0 0 0 0 0 0 0
11.5857 -4.65463 2.05609 0 0 0 0 0 0 0
11.5851 -4.49776 2.03777 0 0 0 0 0 0 0
11.5831 -4.34753 2.02077 0 0 0 0 0 0 0
11.5799 -4.19478 2.02068 0 0 0 0 0 0 0
11.5783 -4.04113 2.08488 0 0 0 0 0 0 0
11.5763 -3.8926 2.07245 0 0 0 0 0 0 0
11.5745 -3.68211 2.02298 0 0 0 0 0 0 0
11.6013 3.69313 1.80948 0 0 0 0 0 0 0
11.5975 11.7594 1.70528 0 0 0 0 0 0 0
11.6356 11.7869 1.67635 0 0 0 0 0 0 0
11.5958 -7.16914 2.28747 0 0 0 0 0 0 0
11.6064 -7.04348 2.29582 0 0 0 0 0 0 0
11.6002 -6.89993 2.27637 0 0 0 0 0 0 0
11.5958 -6.75531 2.25236 0 0 0 0 0 0 0
11.5946 -6.5913 2.23461 0 0 0 0 0 0 0
11.5988 -6.4374 2.26477 0 0 0 0 0 0 0
11.596 -6.27537 2.24309 0 0 0 0 0 0 0
11.6025 -6.14392 2.26301 0 0 0 0 0 0 0
11.5978 -5.98628 2.23425 0 0 0 0 0 0 0
11.5948 -5.85449 2.23295 0 0 0 0 0 0 0
11.5964 -5.72792 2.22728 0 0 0 0 0 0 0
11.5962 -5.57443 2.21866 0 0 0 0 0 0 0
11.5942 -5.42226 2.19415 0 0 0 0 0 0 0
11.5948 -5.24472 2.20765 0 0 0 0 0 0 0
11.5937 -5.0912 2.22156 0 0 0 0 0 0 0
11.589 -4.94964 2.25314 0 0 0 0 0 0 0
11.5878 -4.79368 2.22583 0 0 0 0 0 0 0
11.5871 -4.67178 2.21581 0 0 0 0 0 0 0
11.5845 -4.53753 2.19345 0 0 0 0 0 0 0
11.5824 -4.38464 2.17461 0 0 0 0 0 0 0
11.5803 -4.2248 2.15601 0 0 0 0 0 0 0
11.5782 -4.0443 2.18715 0 0 0 0 0 0 0
11.5773 -3.89016 2.20152 0 0 0 0 0 0 0
11.5765 -3.74559 2.13564 0 0 0 0 0 0 0
11.5743 -3.59354 2.1229 0 0 0 0 0 0 0
11.6009 11.7568 1.84928 0 0 0 0 0 0 0
11.6355 11.7864 1.88653 0 0 0 0 0 0 0
11.5987 -7.59076 2.49443 0 0 0 0 0 0 0
11.61 -7.5065 2.44959 0 0 0 0 0 0 0
11.6116 -7.35507 2.44011 0 0 0 0 0 0 0
11.6091 -7.18908 2.40496 0 0 0 0 0 0 0
11.6062 -7.04617 2.42663 0 0 0 0 0 0 0
11.6041 -6.90887 2.41795 0 0 0 0 0 0 0
11.5998 -6.7557 2.41952 0 0 0 0 0 0 0
11.6021 -6.59144 2.39157 0 0 0 0 0 0 0
11.5981 -6.42962 2.39622 0 0 0 0 0 0 0
11.6015 -6.32995 2.39902 0 0 0 0 0 0 0
11.5962 -6.1659 2.40684 0 0 0 0 0 0 0
11.5986 -6.00602 2.39516 0 0 0 0 0 0 0
11.5908 -5.85783 2.37463 0 0 0 0 0 0 0
11.592 -5.71143 2.37764 0 0 0 0 0 0 0
11.5934 -5.53813 2.38088 0 0 0 0 0 0 0
11.596 -5.40319 2.374 0 0 0 0 0 0 0
11.5939 -5.24082 2.34864 0 0 0 0 0 0 0
11.5901 -5.08793 2.34656 0 0 0 0 0 0 0
11.5898 -4.88337 2.36562 0 0 0 0 0 0 0
11.5869 -4.77316 2.388 0 0 0 0 0 0 0
11.5847 -4.64403 2.38484 0 0 0 0 0 0 0
11.5843 -4.48706 2.37777 0 0 0 0 0 0 0
11.5823 -4.33813 2.36067 0 0 0 0 0 0 0
11.58 -4.1784 2.34308 0 0 0 0 0 0 0
11.579 -4.05092 2.36356 0 0 0 0 0 0 0
11.5785 -3.90499 2.35626 0 0 0 0 0 0 0
11.5761 -3.74139 2.33973 0 0 0 0 0 0 0
11.5739 -3.58936 2.32546 0 0 0 0 0 0 0
11.617 11.7579 2.00607 0 0 0 0 0 0 0
11.6079 -8.31628 2.65709 0 0 0 0 0 0 0
11.6101 -8.18256 2.62745 0 0 0 0 0 0 0
11.6052 -8.08102 2.64008 0 0 0 0 0 0 0
11.613 -7.97932 2.61828 0 0 0 0 0 0 0
11.6042 -7.79399 2.58369 0 0 0 0 0 0 0
11.6013 -7.6384 2.58506 0 0 0 0 0 0 0
11.6037 -7.48151 2.55138 0 0 0 0 0 0 0
11.6061 -7.33135 2.55515 0 0 0 0 0 0 0
11.6047 -7.20933 2.56943 0 0 0 0 0 0 0
11.6038 -7.0469 2.55347 0 0 0 0 0 0 0
11.6018 -6.91422 2.5558 0 0 0 0 0 0 0
11.6007 -6.77799 2.56191 0 0 0 0 0 0 0
11.6035 -6.58854 2.56479 0 0 0 0 0 0 0
11.604 -6.4376 2.53461 0 0 0 0 0 0 0
11.6019 -6.3048 2.53623 0 0 0 0 0 0 0
11.6041 -6.10829 2.5383 0 0 0 0 0 0 0
11.6008 -5.97113 2.52609 0 0 0 0 0 0 0
11.6007 -5.83083 2.5318 0 0 0 0 0 0 0
11.6003 -5.6818 2.54113 0 0 0 0 0 0 0
11.5988 -5.56465 2.55524 0 0 0 0 0 0 0
11.597 -5.42387 2.53401 0 0 0 0 0 0 0
11.5949 -5.26956 2.51122 0 0 0 0 0 0 0
11.5929 -5.12115 2.49005 0 0 0 0 0 0 0
11.5907 -4.95541 2.46738 0 0 0 0 0 0 0
11.5887 -4.76735 2.52171 0 0 0 0 0 0 0
11.586 -4.62129 2.52161 0 0 0 0 0 0 0
11.5819 -4.41914 2.53488 0 0 0 0 0 0 0
11.5798 -4.2698 2.51623 0 0 0 0 0 0 0
11.5777 -4.11991 2.49844 0 0 0 0 0 0 0
11.5758 -3.98212 2.48283 0 0 0 0 0 0 0
11.594 11.7614 2.15833 0 0 0 0 0 0 0
11.6353 11.7858 2.10012 0 0 0 0 0 0 0
11.6193 -8.77987 2.7631 0 0 0 0 0 0 0
11.6091 -8.54706 2.72605 0 0 0 0 0 0 0
11.6156 -8.41058 2.74074 0 0 0 0 0 0 0
11.606 -8.23788 2.71232 0 0 0 0 0 0 0
11.6117 -8.07706 2.71358 0 0 0 0 0 0 0
11.6067 -7.92971 2.69717 0 0 0 0 0 0 0
11.6158 -7.78438 2.72768 0 0 0 0 0 0 0
11.6144 -7.66396 2.72115 0 0 0 0 0 0 0
11.6142 -7.5179 2.73097 0 0 0 0 0 0 0
11.6142 -7.34529 2.72512 0 0 0 0 0 0 0
11.6012 -7.20006 2.71421 0 0 0 0 0 0 0
11.6016 -7.03507 2.72362 0 0 0 0 0 0 0
11.6016 -6.89164 2.71693 0 0 0 0 0 0 0
11.5973 -6.75128 2.68587 0 0 0 0 0 0 0
11.603 -6.59951 2.71344 0 0 0 0 0 0 0
11.5993 -6.42647 2.68647 0 0 0 0 0 0 0
11.5988 -6.30511 2.71307 0 0 0 0 0 0 0
11.5993 -6.17286 2.66549 0 0 0 0 0 0 0
11.5955 -6.00958 2.66336 0 0 0 0 0 0 0
11.5922 -5.81035 2.6614 0 0 0 0 0 0 0
11.598 -5.62759 2.71474 0 0 0 0 0 0 0
11.5961 -5.48247 2.69062 0 0 0 0 0 0 0
11.5942 -5.34059 2.66766 0 0 0 0 0 0 0
11.5914 -5.23345 2.69151 0 0 0 0 0 0 0
11.5889 -5.14442 2.71945 0 0 0 0 0 0 0
11.5882 -4.95348 2.63627 0 0 0 0 0 0 0
11.5845 -4.80882 2.67233 0 0 0 0 0 0 0
11.5827 -4.67408 2.65446 0 0 0 0 0 0 0
11.5811 -4.54702 2.6382 0 0 0 0 0 0 0
11.5789 -4.38961 2.61889 0 0 0 0 0 0 0
11.5768 -4.22946 2.6001 0 0 0 0 0 0 0
11.5864 11.7537 2.27643 0 0 0 0 0 0 0
11.6279 -9.00356 2.95408 0 0 0 0 0 0 0
11.626 -8.8715 2.91905 0 0 0 0 0 0 0
11.6281 -8.67608 2.91329 0 0 0 0 0 0 0
11.6268 -8.52667 2.87398 0 0 0 0 0 0 0
11.6139 -8.36402 2.91989 0 0 0 0 0 0 0
11.6109 -8.20683 2.89248 0 0 0 0 0 0 0
11.6138 -8.08539 2.93268 0 0 0 0 0 0 0
11.6108 -7.93986 2.89902 0 0 0 0 0 0 0
11.6023 -7.79713 2.88463 0 0 0 0 0 0 0
11.6048 -7.6718 2.88508 0 0 0 0 0 0 0
11.602 -7.51929 2.85001 0 0 0 0 0 0 0
11.6069 -7.35179 2.86102 0 0 0 0 0 0 0
11.6134 -7.20002 2.86481 0 0 0 0 0 0 0
11.6209 -7.02709 2.85612 0 0 0 0 0 0 0
11.6159 -6.84903 2.88027 0 0 0 0 0 0 0
11.6143 -6.72007 2.85474 0 0 0 0 0 0 0
11.6095 -6.55129 2.88189 0 0 0 0 0 0 0
11.6057 -6.37019 2.88383 0 0 0 0 0 0 0
11.6055 -6.22481 2.82028 0 0 0 0 0 0 0
11.6027 -6.1308 2.8402 0 0 0 0 0 0 0
11.6008 -5.97102 2.81208 0 0 0 0 0 0 0
11.5981 -5.87993 2.8349 0 0 0 0 0 0 0
11.5962 -5.72376 2.80908 0 0 0 0 0 0 0
11.5943 -5.57118 2.78451 0 0 0 0 0 0 0
11.5925 -5.42805 2.76207 0 0 0 0 0 0 0
11.6058 11.7579 2.43685 0 0 0 0 0 0 0
11.6211 -9.31417 3.03558 0 0 0 0 0 0 0
11.631 -9.16934 2.9983 0 0 0 0 0 0 0
11.637 -8.93494 3.02814 0 0 0 0 0 0 0
11.6338 -8.76648 2.98316 0 0 0 0 0 0 0
11.6081 -8.54145 3.0072 0 0 0 0 0 0 0
11.6252 -8.22275 2.98754 0 0 0 0 0 0 0
11.5985 -8.04095 2.97166 0 0 0 0 0 0 0
11.6017 -7.95229 2.97696 0 0 0 0 0 0 0
11.6343 -7.66472 2.99061 0 0 0 0 0 0 0
11.6342 -7.49729 2.95527 0 0 0 0 0 0 0
11.6169 -7.16953 3.0052 0 0 0 0 0 0 0
11.6147 -6.9815 2.96684 0 0 0 0 0 0 0
11.6083 -6.73819 2.98799 0 0 0 0 0 0 0
11.6068 -6.60407 2.96292 0 0 0 0 0 0 0
11.6052 -6.47248 2.93868 0 0 0 0 0 0 0
11.5833 -6.15659 2.97046 0 0 0 0 0 0 0
11.5822 -6.03633 2.94968 0 0 0 0 0 0 0
11.5743 11.7391 2.60719 0 0 0 0 0 0 0
11.7733 3.70754 0.234919 0 0 0 0 0 0 0
11.7951 3.86428 0.216777 0 0 0 0 0 0 0
11.7918 4.02059 0.232913 0 0 0 0 0 0 0
11.795 4.18089 0.206591 0 0 0 0 0 0 0
11.7967 4.31018 0.231351 0 0 0 0 0 0 0
11.7866 4.45965 0.21367 0 0 0 0 0 0 0
11.785 4.62369 0.216648 0 0 0 0 0 0 0
11.7922 4.73741 0.187364 0 0 0 0 0 0 0
11.7908 4.92293 0.22761 0 0 0 0 0 0 0
11.7477 5.0596 0.192811 0 0 0 0 0 0 0
11.7849 5.20628 0.209406 0 0 0 0 0 0 0
11.7653 5.35181 0.19561 0 0 0 0 0 0 0
11.7878 5.49673 0.212254 0 0 0 0 0 0 0
11.7873 5.66634 0.210467 0 0 0 0 0 0 0
11.7867 5.7955 0.213457 0 0 0 0 0 0 0
11.7774 5.98253 0.208745 0 0 0 0 0 0 0
11.7885 6.10753 0.218907 0 0 0 0 0 0 0
11.7903 6.26829 0.212912 0 0 0 0 0 0 0
11.7834 6.40741 0.208291 0 0 0 0 0 0 0
11.7735 6.56318 0.205028 0 0 0 0 0 0 0
11.7851 6.69078 0.210227 0 0 0 0 0 0 0
11.7826 6.83922 0.201763 0 0 0 0 0 0 0
11.7858 6.99398 0.204663 0 0 0 0 0 0 0
11.7799 7.16345 0.205248 0 0 0 0 0 0 0
11.7802 7.30156 0.201261 0 0 0 0 0 0 0
11.7839 7.46132 0.198666 0 0 0 0 0 0 0
11.7697 7.58482 0.197209 0 0 0 0 0 0 0
11.7884 7.74329 0.195996 0 0 0 0 0 0 0
11.7845 7.89871 0.196891 0 0 0 0 0 0 0
11.7671 8.05 0.192345 0 0 0 0 0 0 0
11.7864 8.21113 0.191691 0 0 0 0 0 0 0
11.7207 8.29763 0.182335 0 0 0 0 0 0 0
11.7494 8.53675 0.186965 0 0 0 0 0 0 0
11.727 8.69 0.189388 0 0 0 0 0 0 0
11.7715 3.71394 0.398379 0 0 0 0 0 0 0
11.7829 3.84498 0.388739 0 0 0 0 0 0 0
11.7758 4.01898 0.399788 0 0 0 0 0 0 0
11.7808 4.19057 0.368701 0 0 0 0 0 0 0
11.7801 4.32601 0.374467 0 0 0 0 0 0 0
11.7808 4.45958 0.367625 0 0 0 0 0 0 0
11.7841 4.61801 0.36463 0 0 0 0 0 0 0
11.7879 4.77047 0.349353 0 0 0 0 0 0 0
11.7922 4.93056 0.344499 0 0 0 0 0 0 0
11.7924 5.0668 0.324915 0 0 0 0 0 0 0
11.7938 5.19905 0.327326 0 0 0 0 0 0 0
11.7888 5.35076 0.344099 0 0 0 0 0 0 0
11.7951 5.49851 0.314974 0 0 0 0 0 0 0
11.7918 5.64122 0.334568 0 0 0 0 0 0 0
11.7935 5.80517 0.331686 0 0 0 0 0 0 0
11.7939 5.96236 0.338082 0 0 0 0 0 0 0
11.7939 6.11307 0.313129 0 0 0 0 0 0 0
11.7957 6.26919 0.315763 0 0 0 0 0 0 0
11.7932 6.42068 0.319654 0 0 0 0 0 0 0
11.7907 6.5677 0.319814 0 0 0 0 0 0 0
11.7949 6.70819 0.318768 0 0 0 0 0 0 0
11.7941 6.86915 0.302798 0 0 0 0 0 0 0
11.7936 7.02479 0.30544 0 0 0 0 0 0 0
11.7927 7.18152 0.304944 0 0 0 0 0 0 0
11.7931 7.31728 0.298994 0 0 0 0 0 0 0
11.7914 7.47607 0.29596 0 0 0 0 0 0 0
11.7909 7.61334 0.288349 0 0 0 0 0 0 0
11.7885 7.76435 0.275144 0 0 0 0 0 0 0
11.7891 7.92725 0.278627 0 0 0 0 0 0 0
11.7897 8.08092 0.280246 0 0 0 0 0 0 0
11.7883 8.23252 0.279766 0 0 0 0 0 0 0
11.7892 8.37867 0.274723 0 0 0 0 0 0 0
11.788 8.51028 0.274367 0 0 0 0 0 0 0
11.7881 8.66297 0.263242 0 0 0 0 0 0 0
11.7877 8.80768 0.263604 0 0 0 0 0 0 0
11.7883 8.98165 0.252728 0 0 0 0 0 0 0
11.7809 9.14258 0.237285 0 0 0 0 0 0 0
11.7672 9.29548 0.234012 0 0 0 0 0 0 0
11.7895 9.4268 0.265597 0 0 0 0 0 0 0
11.7802 9.56145 0.255708 0 0 0 0 0 0 0
11.7908 9.72746 0.23899 0 0 0 0 0 0 0
11.7815 9.88608 0.249275 0 0 0 0 0 0 0
11.7818 10.0175 0.233878 0 0 0 0 0 0 0
11.7946 10.1946 0.239319 0 0 0 0 0 0 0
11.776 10.3214 0.217491 0 0 0 0 0 0 0
11.7935 10.4618 0.249717 0 0 0 0 0 0 0
11.7933 10.6386 0.220217 0 0 0 0 0 0 0
11.7395 10.8022 0.214921 0 0 0 0 0 0 0
11.7916 10.9194 0.228613 0 0 0 0 0 0 0
11.7988 11.0885 0.246274 0 0 0 0 0 0 0
11.7912 11.2228 0.255593 0 0 0 0 0 0 0
11.7976 11.3585 0.233585 0 0 0 0 0 0 0
11.8004 11.5663 0.234533 0 0 0 0 0 0 0
11.7966 11.6539 0.220463 0 0 0 0 0 0 0
11.7592 11.7752 0.24106 0 0 0 0 0 0 0
11.7707 3.69711 0.500875 0 0 0 0 0 0 0
11.8005 3.84842 0.495106 0 0 0 0 0 0 0
11.7979 3.99452 0.477777 0 0 0 0 0 0 0
11.7993 4.15249 0.470237 0 0 0 0 0 0 0
11.7954 4.32156 0.456377 0 0 0 0 0 0 0
11.7956 4.46629 0.457003 0 0 0 0 0 0 0
11.7964 4.62325 0.460041 0 0 0 0 0 0 0
11.7913 4.76346 0.452373 0 0 0 0 0 0 0
11.7857 4.911 0.449403 0 0 0 0 0 0 0
11.7888 5.06413 0.454369 0 0 0 0 0 0 0
11.7886 5.20323 0.455528 0 0 0 0 0 0 0
11.7851 5.35838 0.451693 0 0 0 0 0 0 0
11.7858 5.51395 0.452435 0 0 0 0 0 0 0
11.7866 5.65677 0.452756 0 0 0 0 0 0 0
11.7863 5.80404 0.455874 0 0 0 0 0 0 0
11.7839 5.96158 0.450625 0 0 0 0 0 0 0
11.7876 6.11062 0.455263 0 0 0 0 0 0 0
11.7874 6.25221 0.456139 0 0 0 0 0 0 0
11.7854 6.40858 0.453188 0 0 0 0 0 0 0
11.7866 6.56095 0.456098 0 0 0 0 0 0 0
11.786 6.71904 0.452633 0 0 0 0 0 0 0
11.7881 6.86753 0.452292 0 0 0 0 0 0 0
11.786 7.0197 0.455587 0 0 0 0 0 0 0
11.7873 7.17414 0.454926 0 0 0 0 0 0 0
11.7874 7.32387 0.459726 0 0 0 0 0 0 0
11.789 7.4572 0.454373 0 0 0 0 0 0 0
11.787 7.61788 0.445791 0 0 0 0 0 0 0
11.7881 7.78386 0.452801 0 0 0 0 0 0 0
11.7884 7.93472 0.452688 0 0 0 0 0 0 0
11.79 8.07409 0.452558 0 0 0 0 0 0 0
11.7891 8.21658 0.448279 0 0 0 0 0 0 0
11.7894 8.37014 0.445441 0 0 0 0 0 0 0
11.7901 8.52167 0.433706 0 0 0 0 0 0 0
11.7907 8.6723 0.43727 0 0 0 0 0 0 0
11.7913 8.81836 0.434796 0 0 0 0 0 0 0
11.7909 8.95927 0.424442 0 0 0 0 0 0 0
11.79 9.1106 0.410309 0 0 0 0 0 0 0
11.7903 9.26476 0.403316 0 0 0 0 0 0 0
11.7909 9.41433 0.411483 0 0 0 0 0 0 0
11.7915 9.57535 0.407107 0 0 0 0 0 0 0
11.7911 9.72972 0.406416 0 0 0 0 0 0 0
11.7904 9.86819 0.384634 0 0 0 0 0 0 0
11.7901 10.0035 0.389269 0 0 0 0 0 0 0
11.7919 10.1539 0.389861 0 0 0 0 0 0 0
11.7914 10.3144 0.378034 0 0 0 0 0 0 0
11.7889 10.4691 0.356323 0 0 0 0 0 0 0
11.7921 10.6075 0.357606 0 0 0 0 0 0 0
11.7948 10.7676 0.347173 0 0 0 0 0 0 0
11.7926 10.9135 0.322535 0 0 0 0 0 0 0
11.7928 11.0625 0.320058 0 0 0 0 0 0 0
11.7934 11.2045 0.31706 0 0 0 0 0 0 0
11.7955 11.3676 0.30925 0 0 0 0 0 0 0
11.8004 11.4991 0.309372 0 0 0 0 0 0 0
11.793 11.664 0.298012 0 0 0 0 0 0 0
11.7171 11.7576 0.292795 0 0 0 0 0 0 0
11.7692 3.72416 0.654666 0 0 0 0 0 0 0
11.785 3.88459 0.658847 0 0 0 0 0 0 0
11.7804 4.03133 0.6566 0 0 0 0 0 0 0
11.784 4.17992 0.651946 0 0 0 0 0 0 0
11.784 4.32505 0.651492 0 0 0 0 0 0 0
11.7837 4.46816 0.649477 0 0 0 0 0 0 0
11.7859 4.62488 0.640854 0 0 0 0 0 0 0
11.7835 4.78228 0.650882 0 0 0 0 0 0 0
11.7855 4.93011 0.647754 0 0 0 0 0 0 0
11.7845 5.07315 0.641934 0 0 0 0 0 0 0
11.7864 5.21278 0.640161 0 0 0 0 0 0 0
11.7831 5.36024 0.642146 0 0 0 0 0 0 0
11.7838 5.51636 0.644585 0 0 0 0 0 0 0
11.7851 5.66039 0.642713 0 0 0 0 0 0 0
11.7853 5.81255 0.637053 0 0 0 0 0 0 0
11.7842 5.97118 0.643403 0 0 0 0 0 0 0
11.7853 6.12537 0.638601 0 0 0 0 0 0 0
11.7881 6.26304 0.634661 0 0 0 0 0 0 0
11.7843 6.4178 0.641925 0 0 0 0 0 0 0
11.7864 6.57455 0.639535 0 0 0 0 0 0 0
11.786 6.72825 0.638115 0 0 0 0 0 0 0
11.7877 6.87782 0.635679 0 0 0 0 0 0 0
11.7863 7.02594 0.638619 0 0 0 0 0 0 0
11.787 7.17561 0.638246 0 0 0 0 0 0 0
11.7886 7.32304 0.633779 0 0 0 0 0 0 0
11.7884 7.47762 0.637618 0 0 0 0 0 0 0
11.7906 7.62689 0.633932 0 0 0 0 0 0 0
11.7901 7.77286 0.629472 0 0 0 0 0 0 0
11.7898 7.92305 0.625641 0 0 0 0 0 0 0
11.7895 8.07272 0.626975 0 0 0 0 0 0 0
11.7893 8.21876 0.616977 0 0 0 0 0 0 0
11.79 8.36151 0.615512 0 0 0 0 0 0 0
11.7892 8.50589 0.596855 0 0 0 0 0 0 0
11.7897 8.65784 0.592943 0 0 0 0 0 0 0
11.7902 8.8084 0.587835 0 0 0 0 0 0 0
11.7913 8.98464 0.566838 0 0 0 0 0 0 0
11.7905 9.12686 0.570769 0 0 0 0 0 0 0
11.7875 9.26419 0.552929 0 0 0 0 0 0 0
11.7875 9.40039 0.552581 0 0 0 0 0 0 0
11.788 9.56057 0.549748 0 0 0 0 0 0 0
11.7886 9.72101 0.512502 0 0 0 0 0 0 0
11.7902 9.87322 0.497218 0 0 0 0 0 0 0
11.7916 10.0238 0.483126 0 0 0 0 0 0 0
11.7919 10.1618 0.479745 0 0 0 0 0 0 0
11.792 10.3238 0.473435 0 0 0 0 0 0 0
11.7919 10.4758 0.471507 0 0 0 0 0 0 0
11.793 10.6195 0.472336 0 0 0 0 0 0 0
11.7943 10.7582 0.473621 0 0 0 0 0 0 0
11.794 10.9127 0.465368 0 0 0 0 0 0 0
11.7965 11.0689 0.464847 0 0 0 0 0 0 0
11.7967 11.2149 0.463517 0 0 0 0 0 0 0
11.7968 11.3715 0.460947 0 0 0 0 0 0 0
11.7965 11.5264 0.460993 0 0 0 0 0 0 0
11.7851 11.6921 0.45898 0 0 0 0 0 0 0
11.755 11.769 0.463239 0 0 0 0 0 0 0
11.7734 3.70817 0.819892 0 0 0 0 0 0 0
11.7989 3.86331 0.82109 0 0 0 0 0 0 0
11.7991 4.03053 0.814986 0 0 0 0 0 0 0
11.7942 4.17659 0.820951 0 0 0 0 0 0 0
11.7975 4.32817 0.805215 0 0 0 0 0 0 0
11.7971 4.46851 0.812422 0 0 0 0 0 0 0
11.7993 4.62329 0.789638 0 0 0 0 0 0 0
11.7892 4.76664 0.809002 0 0 0 0 0 0 0
11.7948 4.9158 0.795194 0 0 0 0 0 0 0
11.7938 5.06039 0.794174 0 0 0 0 0 0 0
11.7964 5.20049 0.780535 0 0 0 0 0 0 0
11.7911 5.35302 0.790936 0 0 0 0 0 0 0
11.7934 5.51293 0.787934 0 0 0 0 0 0 0
11.796 5.65538 0.775191 0 0 0 0 0 0 0
11.7913 5.81017 0.782006 0 0 0 0 0 0 0
11.7936 5.9552 0.768386 0 0 0 0 0 0 0
11.794 6.11412 0.771639 0 0 0 0 0 0 0
11.7948 6.25667 0.765335 0 0 0 0 0 0 0
11.794 6.4059 0.765761 0 0 0 0 0 0 0
11.7938 6.55775 0.763471 0 0 0 0 0 0 0
11.7935 6.70956 0.761724 0 0 0 0 0 0 0
11.7933 6.86105 0.760558 0 0 0 0 0 0 0
11.793 7.01096 0.759927 0 0 0 0 0 0 0
11.7927 7.16102 0.75988 0 0 0 0 0 0 0
11.7898 7.32058 0.745778 0 0 0 0 0 0 0
11.7905 7.46763 0.758314 0 0 0 0 0 0 0
11.7875 7.62633 0.725712 0 0 0 0 0 0 0
11.7885 7.77826 0.731648 0 0 0 0 0 0 0
11.7889 7.93443 0.722071 0 0 0 0 0 0 0
11.7896 8.07141 0.731334 0 0 0 0 0 0 0
11.7885 8.21937 0.72209 0 0 0 0 0 0 0
11.7888 8.37742 0.720282 0 0 0 0 0 0 0
11.7887 8.52878 0.716406 0 0 0 0 0 0 0
11.7884 8.67203 0.710902 0 0 0 0 0 0 0
11.7886 8.83441 0.703818 0 0 0 0 0 0 0
11.789 8.97807 0.700443 0 0 0 0 0 0 0
11.7901 9.11942 0.708618 0 0 0 0 0 0 0
11.7904 9.26943 0.704006 0 0 0 0 0 0 0
11.7902 9.41985 0.700477 0 0 0 0 0 0 0
11.7929 9.57869 0.688478 0 0 0 0 0 0 0
11.7914 9.73708 0.669249 0 0 0 0 0 0 0
11.7917 9.88907 0.67351 0 0 0 0 0 0 0
11.7906 10.0229 0.671186 0 0 0 0 0 0 0
11.7911 10.164 0.668537 0 0 0 0 0 0 0
11.7929 10.3261 0.653855 0 0 0 0 0 0 0
11.7929 10.4798 0.654707 0 0 0 0 0 0 0
11.7935 10.6247 0.655477 0 0 0 0 0 0 0
11.7946 10.7682 0.65395 0 0 0 0 0 0 0
11.7938 10.9165 0.657242 0 0 0 0 0 0 0
11.7945 11.0743 0.662378 0 0 0 0 0 0 0
11.7961 11.2217 0.660941 0 0 0 0 0 0 0
11.7966 11.3763 0.660192 0 0 0 0 0 0 0
11.7963 11.5261 0.662421 0 0 0 0 0 0 0
11.7848 11.6917 0.666589 0 0 0 0 0 0 0
11.7546 11.7685 0.658385 0 0 0 0 0 0 0
11.7703 3.7232 0.97152 0 0 0 0 0 0 0
11.7837 3.87504 0.95482 0 0 0 0 0 0 0
11.7791 4.02929 0.940008 0 0 0 0 0 0 0
11.783 4.1792 0.955819 0 0 0 0 0 0 0
11.7809 4.33026 0.948747 0 0 0 0 0 0 0
11.7834 4.48108 0.939362 0 0 0 0 0 0 0
11.782 4.63671 0.929897 0 0 0 0 0 0 0
11.7858 4.79069 0.93081 0 0 0 0 0 0 0
11.7863 4.93246 0.937024 0 0 0 0 0 0 0
11.7873 5.06832 0.932891 0 0 0 0 0 0 0
11.7868 5.21522 0.927663 0 0 0 0 0 0 0
11.7853 5.36039 0.926628 0 0 0 0 0 0 0
11.785 5.51668 0.929689 0 0 0 0 0 0 0
11.7871 5.66824 0.925369 0 0 0 0 0 0 0
11.7853 5.82102 0.919591 0 0 0 0 0 0 0
11.7847 5.99154 0.915242 0 0 0 0 0 0 0
11.7864 6.14093 0.911398 0 0 0 0 0 0 0
11.786 6.27949 0.911281 0 0 0 0 0 0 0
11.7861 6.42594 0.905113 0 0 0 0 0 0 0
11.7861 6.58044 0.915475 0 0 0 0 0 0 0
11.7859 6.73739 0.90786 0 0 0 0 0 0 0
11.7876 6.88902 0.912012 0 0 0 0 0 0 0
11.787 7.03495 0.909692 0 0 0 0 0 0 0
11.7874 7.18129 0.908496 0 0 0 0 0 0 0
11.7874 7.3308 0.907815 0 0 0 0 0 0 0
11.7874 7.48411 0.909961 0 0 0 0 0 0 0
11.7877 7.63877 0.906847 0 0 0 0 0 0 0
11.7879 7.78827 0.907724 0 0 0 0 0 0 0
11.7884 7.93422 0.906323 0 0 0 0 0 0 0
11.7881 8.08414 0.894413 0 0 0 0 0 0 0
11.787 8.2281 0.902031 0 0 0 0 0 0 0
11.7875 8.37695 0.896257 0 0 0 0 0 0 0
11.788 8.52536 0.900562 0 0 0 0 0 0 0
11.7873 8.6698 0.892366 0 0 0 0 0 0 0
11.787 8.8218 0.879325 0 0 0 0 0 0 0
11.7895 8.99189 0.860732 0 0 0 0 0 0 0
11.7882 9.12551 0.879115 0 0 0 0 0 0 0
11.7887 9.25568 0.871652 0 0 0 0 0 0 0
11.7907 9.42979 0.854831 0 0 0 0 0 0 0
11.7888 9.57068 0.846507 0 0 0 0 0 0 0
11.7901 9.73076 0.836405 0 0 0 0 0 0 0
11.7899 9.88576 0.853911 0 0 0 0 0 0 0
11.7927 10.0405 0.830339 0 0 0 0 0 0 0
11.791 10.1892 0.832188 0 0 0 0 0 0 0
11.7893 10.3327 0.826186 0 0 0 0 0 0 0
11.7901 10.4835 0.809653 0 0 0 0 0 0 0
11.7916 10.6414 0.802676 0 0 0 0 0 0 0
11.7923 10.7807 0.808098 0 0 0 0 0 0 0
11.7911 10.922 0.811728 0 0 0 0 0 0 0
11.792 11.0825 0.820267 0 0 0 0 0 0 0
11.797 11.227 0.793501 0 0 0 0 0 0 0
11.795 11.3713 0.829539 0 0 0 0 0 0 0
11.7931 11.5138 0.825659 0 0 0 0 0 0 0
11.7856 11.6884 0.833705 0 0 0 0 0 0 0
11.7468 11.7713 0.83737 0 0 0 0 0 0 0
11.773 3.71683 1.1311 0 0 0 0 0 0 0
11.7887 3.89366 1.13345 0 0 0 0 0 0 0
11.7879 4.03444 1.11512 0 0 0 0 0 0 0
11.7884 4.1836 1.11328 0 0 0 0 0 0 0
11.7879 4.34996 1.10687 0 0 0 0 0 0 0
11.7891 4.47971 1.11027 0 0 0 0 0 0 0
11.7898 4.62996 1.09519 0 0 0 0 0 0 0
11.7836 4.78617 1.10282 0 0 0 0 0 0 0
11.7892 4.92395 1.10002 0 0 0 0 0 0 0
11.7835 5.07137 1.09002 0 0 0 0 0 0 0
11.7866 5.22676 1.09957 0 0 0 0 0 0 0
11.782 5.37097 1.0924 0 0 0 0 0 0 0
11.7852 5.52619 1.08899 0 0 0 0 0 0 0
11.7866 5.6812 1.08178 0 0 0 0 0 0 0
11.7874 5.83479 1.08065 0 0 0 0 0 0 0
11.7863 5.98714 1.08129 0 0 0 0 0 0 0
11.7882 6.13821 1.0789 0 0 0 0 0 0 0
11.7877 6.28015 1.0725 0 0 0 0 0 0 0
11.7878 6.4359 1.06437 0 0 0 0 0 0 0
11.7891 6.5863 1.06619 0 0 0 0 0 0 0
11.7889 6.7299 1.07107 0 0 0 0 0 0 0
11.79 6.87478 1.06764 0 0 0 0 0 0 0
11.7883 7.02539 1.06332 0 0 0 0 0 0 0
11.7885 7.17176 1.06803 0 0 0 0 0 0 0
11.7874 7.33115 1.06278 0 0 0 0 0 0 0
11.7883 7.49398 1.063 0 0 0 0 0 0 0
11.7893 7.62948 1.06307 0 0 0 0 0 0 0
11.7879 7.77255 1.06191 0 0 0 0 0 0 0
11.7874 7.92848 1.06373 0 0 0 0 0 0 0
11.7888 8.08795 1.05445 0 0 0 0 0 0 0
11.7873 8.22859 1.05115 0 0 0 0 0 0 0
11.7892 8.37655 1.04876 0 0 0 0 0 0 0
11.786 8.51383 1.04549 0 0 0 0 0 0 0
11.789 8.67531 1.01667 0 0 0 0 0 0 0
11.7877 8.832 1.00495 0 0 0 0 0 0 0
11.7881 8.97306 0.99264 0 0 0 0 0 0 0
11.7912 9.12053 0.991791 0 0 0 0 0 0 0
11.7929 9.26591 0.989615 0 0 0 0 0 0 0
11.7875 9.42102 0.991299 0 0 0 0 0 0 0
11.7912 9.581 0.995876 0 0 0 0 0 0 0
11.7912 9.73072 0.986214 0 0 0 0 0 0 0
11.7915 9.88749 0.975826 0 0 0 0 0 0 0
11.7923 10.0443 0.957313 0 0 0 0 0 0 0
11.7973 10.1743 0.951234 0 0 0 0 0 0 0
11.7935 10.3298 0.978552 0 0 0 0 0 0 0
11.7905 10.4887 0.974918 0 0 0 0 0 0 0
11.7939 10.6306 0.946767 0 0 0 0 0 0 0
11.7942 10.7761 0.950044 0 0 0 0 0 0 0
11.7927 10.9182 0.964735 0 0 0 0 0 0 0
11.7942 11.084 0.95773 0 0 0 0 0 0 0
11.7972 11.2341 0.968251 0 0 0 0 0 0 0
11.7951 11.3715 0.967661 0 0 0 0 0 0 0
11.7975 11.5276 0.961623 0 0 0 0 0 0 0
11.7845 11.6955 0.975006 0 0 0 0 0 0 0
11.7486 11.7667 0.968258 0 0 0 0 0 0 0
11.7727 3.72553 1.27295 0 0 0 0 0 0 0
11.7864 3.86818 1.25155 0 0 0 0 0 0 0
11.7862 4.03352 1.24859 0 0 0 0 0 0 0
11.7851 4.17534 1.26842 0 0 0 0 0 0 0
11.7879 4.3389 1.24176 0 0 0 0 0 0 0
11.7874 4.50083 1.23131 0 0 0 0 0 0 0
11.788 4.63488 1.23914 0 0 0 0 0 0 0
11.788 4.79241 1.23861 0 0 0 0 0 0 0
11.7876 4.95326 1.24109 0 0 0 0 0 0 0
11.79 5.09988 1.23025 0 0 0 0 0 0 0
11.7895 5.23347 1.22898 0 0 0 0 0 0 0
11.7857 5.36604 1.2342 0 0 0 0 0 0 0
11.7856 5.52019 1.21389 0 0 0 0 0 0 0
11.7866 5.68978 1.20825 0 0 0 0 0 0 0
11.7856 5.85364 1.20934 0 0 0 0 0 0 0
11.7864 5.9955 1.20401 0 0 0 0 0 0 0
11.7884 6.14161 1.22038 0 0 0 0 0 0 0
11.7878 6.27052 1.20762 0 0 0 0 0 0 0
11.7872 6.41973 1.20494 0 0 0 0 0 0 0
11.7873 6.58141 1.20368 0 0 0 0 0 0 0
11.788 6.73927 1.19944 0 0 0 0 0 0 0
11.7885 6.8913 1.20371 0 0 0 0 0 0 0
11.7888 7.04053 1.2004 0 0 0 0 0 0 0
11.7895 7.18699 1.19875 0 0 0 0 0 0 0
11.7886 7.34464 1.19136 0 0 0 0 0 0 0
11.7894 7.50099 1.20011 0 0 0 0 0 0 0
11.789 7.65429 1.19605 0 0 0 0 0 0 0
11.7899 7.79509 1.20461 0 0 0 0 0 0 0
11.7891 7.93255 1.1997 0 0 0 0 0 0 0
11.7875 8.09569 1.18721 0 0 0 0 0 0 0
11.787 8.23967 1.18459 0 0 0 0 0 0 0
11.7876 8.37646 1.19897 0 0 0 0 0 0 0
11.7887 8.52927 1.18267 0 0 0 0 0 0 0
11.7897 8.67597 1.16737 0 0 0 0 0 0 0
11.7892 8.83264 1.17261 0 0 0 0 0 0 0
11.7892 8.99247 1.15429 0 0 0 0 0 0 0
11.7899 9.13579 1.17251 0 0 0 0 0 0 0
11.7891 9.29683 1.14851 0 0 0 0 0 0 0
11.7896 9.42867 1.15693 0 0 0 0 0 0 0
11.7893 9.58379 1.15297 0 0 0 0 0 0 0
11.789 9.72299 1.14846 0 0 0 0 0 0 0
11.7901 9.88706 1.13921 0 0 0 0 0 0 0
11.7902 10.0502 1.12159 0 0 0 0 0 0 0
11.7926 10.188 1.11048 0 0 0 0 0 0 0
11.7918 10.3332 1.12675 0 0 0 0 0 0 0
11.7902 10.501 1.15022 0 0 0 0 0 0 0
11.7923 10.6352 1.11547 0 0 0 0 0 0 0
11.7912 10.7868 1.11552 0 0 0 0 0 0 0
11.7926 10.9306 1.11931 0 0 0 0 0 0 0
11.7934 11.0883 1.12352 0 0 0 0 0 0 0
11.7926 11.2321 1.13484 0 0 0 0 0 0 0
11.7962 11.3853 1.12019 0 0 0 0 0 0 0
11.7936 11.5416 1.13031 0 0 0 0 0 0 0
11.7873 11.6944 1.11177 0 0 0 0 0 0 0
11.7234 11.7707 1.1048 0 0 0 0 0 0 0
11.7685 3.72469 1.42144 0 0 0 0 0 0 0
11.7851 3.8973 1.40762 0 0 0 0 0 0 0
11.7856 4.04766 1.42292 0 0 0 0 0 0 0
11.7799 4.18791 1.42655 0 0 0 0 0 0 0
11.7808 4.33987 1.39972 0 0 0 0 0 0 0
11.7866 4.49715 1.40306 0 0 0 0 0 0 0
11.7902 4.64732 1.38876 0 0 0 0 0 0 0
11.7922 4.79679 1.39673 0 0 0 0 0 0 0
11.7881 4.96275 1.41753 0 0 0 0 0 0 0
11.787 5.09402 1.40182 0 0 0 0 0 0 0
11.7873 5.2553 1.40066 0 0 0 0 0 0 0
11.7792 5.3974 1.40758 0 0 0 0 0 0 0
11.7842 5.54909 1.3957 0 0 0 0 0 0 0
11.7858 5.70851 1.38247 0 0 0 0 0 0 0
11.7846 5.86205 1.36772 0 0 0 0 0 0 0
11.787 6.00996 1.37158 0 0 0 0 0 0 0
11.7833 6.14972 1.371 0 0 0 0 0 0 0
11.7851 6.28196 1.37778 0 0 0 0 0 0 0
11.7875 6.43024 1.36361 0 0 0 0 0 0 0
11.7851 6.57418 1.3645 0 0 0 0 0 0 0
11.7854 6.72682 1.35807 0 0 0 0 0 0 0
11.7856 6.8768 1.36456 0 0 0 0 0 0 0
11.7846 7.02369 1.34755 0 0 0 0 0 0 0
11.7848 7.18154 1.34462 0 0 0 0 0 0 0
11.7871 7.35537 1.35482 0 0 0 0 0 0 0
11.7885 7.51643 1.34244 0 0 0 0 0 0 0
11.7903 7.65976 1.34349 0 0 0 0 0 0 0
11.7864 7.77668 1.32549 0 0 0 0 0 0 0
11.7866 7.92924 1.33208 0 0 0 0 0 0 0
11.7861 8.10017 1.33076 0 0 0 0 0 0 0
11.7895 8.26435 1.32212 0 0 0 0 0 0 0
11.7897 8.38639 1.31777 0 0 0 0 0 0 0
11.7894 8.53008 1.33671 0 0 0 0 0 0 0
11.7886 8.68071 1.32009 0 0 0 0 0 0 0
11.7904 8.83893 1.32008 0 0 0 0 0 0 0
11.7884 8.99571 1.30503 0 0 0 0 0 0 0
11.788 9.14772 1.30403 0 0 0 0 0 0 0
11.7862 9.28129 1.30543 0 0 0 0 0 0 0
11.7882 9.46473 1.29195 0 0 0 0 0 0 0
11.7905 9.58424 1.29178 0 0 0 0 0 0 0
11.7883 9.73014 1.28703 0 0 0 0 0 0 0
11.7888 9.88236 1.28217 0 0 0 0 0 0 0
11.7909 10.0504 1.26607 0 0 0 0 0 0 0
11.7926 10.1934 1.27782 0 0 0 0 0 0 0
11.7919 10.3337 1.26005 0 0 0 0 0 0 0
11.7902 10.4924 1.29346 0 0 0 0 0 0 0
11.792 10.6296 1.25817 0 0 0 0 0 0 0
11.7921 10.7712 1.26751 0 0 0 0 0 0 0
11.7954 10.9281 1.26475 0 0 0 0 0 0 0
11.7939 11.0922 1.2679 0 0 0 0 0 0 0
11.7974 11.2422 1.26946 0 0 0 0 0 0 0
11.7944 11.3846 1.25996 0 0 0 0 0 0 0
11.7951 11.5216 1.25909 0 0 0 0 0 0 0
11.7821 11.7118 1.22408 0 0 0 0 0 0 0
11.7627 11.7721 1.21397 0 0 0 0 0 0 0
11.7716 3.72541 1.57943 0 0 0 0 0 0 0
11.7937 3.89162 1.5669 0 0 0 0 0 0 0
11.788 4.05878 1.56211 0 0 0 0 0 0 0
11.7847 4.20002 1.55165 0 0 0 0 0 0 0
11.7862 4.34624 1.53231 0 0 0 0 0 0 0
11.7789 4.47658 1.52246 0 0 0 0 0 0 0
11.7847 4.64742 1.53389 0 0 0 0 0 0 0
11.7849 4.80157 1.54221 0 0 0 0 0 0 0
11.7895 4.95351 1.54373 0 0 0 0 0 0 0
11.7849 5.1151 1.53318 0 0 0 0 0 0 0
11.7923 5.2658 1.54534 0 0 0 0 0 0 0
11.7881 5.41125 1.53363 0 0 0 0 0 0 0
11.7856 5.55945 1.51652 0 0 0 0 0 0 0
11.7857 5.70623 1.51372 0 0 0 0 0 0 0
11.7836 5.86778 1.50738 0 0 0 0 0 0 0
11.7872 6.01273 1.51876 0 0 0 0 0 0 0
11.7849 6.17085 1.51907 0 0 0 0 0 0 0
11.7861 6.30449 1.51892 0 0 0 0 0 0 0
11.7857 6.43953 1.50449 0 0 0 0 0 0 0
11.7832 6.59548 1.48413 0 0 0 0 0 0 0
11.7852 6.75763 1.486 0 0 0 0 0 0 0
11.7886 6.90063 1.47793 0 0 0 0 0 0 0
11.7869 7.04328 1.48371 0 0 0 0 0 0 0
11.788 7.19454 1.4846 0 0 0 0 0 0 0
11.7847 7.35796 1.48653 0 0 0 0 0 0 0
11.7852 7.52886 1.47433 0 0 0 0 0 0 0
11.7884 7.66097 1.464 0 0 0 0 0 0 0
11.7879 7.79282 1.45497 0 0 0 0 0 0 0
11.7873 7.94873 1.47547 0 0 0 0 0 0 0
11.7888 8.1209 1.46421 0 0 0 0 0 0 0
11.7897 8.25757 1.45467 0 0 0 0 0 0 0
11.7907 8.39011 1.4501 0 0 0 0 0 0 0
11.7903 8.54705 1.47299 0 0 0 0 0 0 0
11.7912 8.70732 1.476 0 0 0 0 0 0 0
11.7912 8.85109 1.46095 0 0 0 0 0 0 0
11.7921 9.00628 1.45841 0 0 0 0 0 0 0
11.7913 9.14146 1.4525 0 0 0 0 0 0 0
11.791 9.30557 1.4537 0 0 0 0 0 0 0
11.7886 9.44474 1.4291 0 0 0 0 0 0 0
11.7892 9.58648 1.44227 0 0 0 0 0 0 0
11.7903 9.74104 1.44358 0 0 0 0 0 0 0
11.7908 9.8949 1.44507 0 0 0 0 0 0 0
11.7904 10.0435 1.43075 0 0 0 0 0 0 0
11.7919 10.1886 1.43849 0 0 0 0 0 0 0
11.7895 10.3517 1.41782 0 0 0 0 0 0 0
11.7926 10.4923 1.42358 0 0 0 0 0 0 0
11.7919 10.6375 1.41187 0 0 0 0 0 0 0
11.7937 10.7789 1.41979 0 0 0 0 0 0 0
11.7941 10.9406 1.42518 0 0 0 0 0 0 0
11.791 11.1054 1.41943 0 0 0 0 0 0 0
11.7918 11.2459 1.42012 0 0 0 0 0 0 0
11.7948 11.3938 1.416 0 0 0 0 0 0 0
11.7945 11.5506 1.38423 0 0 0 0 0 0 0
11.7731 11.7119 1.38687 0 0 0 0 0 0 0
11.767 11.7698 1.39308 0 0 0 0 0 0 0
11.7774 3.73545 1.73045 0 0 0 0 0 0 0
11.7779 3.90862 1.73546 0 0 0 0 0 0 0
11.7828 4.07469 1.73567 0 0 0 0 0 0 0
11.7786 4.21704 1.72896 0 0 0 0 0 0 0
11.7804 4.36558 1.71596 0 0 0 0 0 0 0
11.7816 4.51733 1.69322 0 0 0 0 0 0 0
11.7734 4.65724 1.71881 0 0 0 0 0 0 0
11.773 4.82495 1.72391 0 0 0 0 0 0 0
11.7748 4.97201 1.71501 0 0 0 0 0 0 0
11.7776 5.11372 1.69962 0 0 0 0 0 0 0
11.7763 5.25686 1.70164 0 0 0 0 0 0 0
11.7766 5.40305 1.68388 0 0 0 0 0 0 0
11.7795 5.56691 1.69083 0 0 0 0 0 0 0
11.7833 5.72178 1.69487 0 0 0 0 0 0 0
11.781 5.86889 1.66863 0 0 0 0 0 0 0
11.7802 6.01012 1.6742 0 0 0 0 0 0 0
11.7809 6.16429 1.67795 0 0 0 0 0 0 0
11.7819 6.30473 1.65721 0 0 0 0 0 0 0
11.7819 6.45803 1.67415 0 0 0 0 0 0 0
11.7794 6.62692 1.67048 0 0 0 0 0 0 0
11.7818 6.76096 1.66158 0 0 0 0 0 0 0
11.7824 6.9087 1.65708 0 0 0 0 0 0 0
11.7842 7.05831 1.6472 0 0 0 0 0 0 0
11.7814 7.20828 1.64766 0 0 0 0 0 0 0
11.7837 7.35146 1.63729 0 0 0 0 0 0 0
11.7842 7.50071 1.6353 0 0 0 0 0 0 0
11.7847 7.65132 1.63403 0 0 0 0 0 0 0
11.7852 7.7986 1.63361 0 0 0 0 0 0 0
11.7857 7.94648 1.63412 0 0 0 0 0 0 0
11.787 8.09501 1.62373 0 0 0 0 0 0 0
11.7879 8.24187 1.60044 0 0 0 0 0 0 0
11.7888 8.39077 1.61296 0 0 0 0 0 0 0
11.7879 8.54067 1.59959 0 0 0 0 0 0 0
11.7891 8.71049 1.59484 0 0 0 0 0 0 0
11.7895 8.87454 1.5912 0 0 0 0 0 0 0
11.79 9.01623 1.59684 0 0 0 0 0 0 0
11.7905 9.17251 1.60413 0 0 0 0 0 0 0
11.7926 9.31716 1.60222 0 0 0 0 0 0 0
11.7913 9.46038 1.60213 0 0 0 0 0 0 0
11.791 9.6141 1.60615 0 0 0 0 0 0 0
11.7932 9.7627 1.57889 0 0 0 0 0 0 0
11.7905 9.89067 1.5881 0 0 0 0 0 0 0
11.7899 10.0582 1.56069 0 0 0 0 0 0 0
11.7907 10.192 1.56672 0 0 0 0 0 0 0
11.7903 10.3444 1.58074 0 0 0 0 0 0 0
11.7906 10.5057 1.58235 0 0 0 0 0 0 0
11.7926 10.6355 1.55353 0 0 0 0 0 0 0
11.7917 10.7978 1.54577 0 0 0 0 0 0 0
11.7916 10.9521 1.56114 0 0 0 0 0 0 0
11.7912 11.1092 1.57146 0 0 0 0 0 0 0
11.7953 11.2416 1.57821 0 0 0 0 0 0 0
11.796 11.3845 1.53632 0 0 0 0 0 0 0
11.7942 11.5228 1.53695 0 0 0 0 0 0 0
11.7704 11.7205 1.54908 0 0 0 0 0 0 0
11.7438 11.7806 1.47375 0 0 0 0 0 0 0
11.7574 3.36106 1.93601 0 0 0 0 0 0 0
11.7764 3.49625 1.90643 0 0 0 0 0 0 0
11.7962 3.62101 1.8729 0 0 0 0 0 0 0
11.7686 3.75064 1.82783 0 0 0 0 0 0 0
11.7827 3.88277 1.86526 0 0 0 0 0 0 0
11.7834 4.04397 1.87067 0 0 0 0 0 0 0
11.7898 4.20821 1.88738 0 0 0 0 0 0 0
11.7858 4.37434 1.87738 0 0 0 0 0 0 0
11.7838 4.52586 1.8535 0 0 0 0 0 0 0
11.7823 4.66727 1.85135 0 0 0 0 0 0 0
11.7811 4.81478 1.8754 0 0 0 0 0 0 0
11.7816 4.97003 1.85713 0 0 0 0 0 0 0
11.7829 5.12438 1.84048 0 0 0 0 0 0 0
11.7712 5.28489 1.85395 0 0 0 0 0 0 0
11.773 5.44255 1.83601 0 0 0 0 0 0 0
11.7769 5.58497 1.85537 0 0 0 0 0 0 0
11.7775 5.74039 1.84268 0 0 0 0 0 0 0
11.7778 5.89034 1.82958 0 0 0 0 0 0 0
11.7784 6.0394 1.81996 0 0 0 0 0 0 0
11.779 6.19001 1.81094 0 0 0 0 0 0 0
11.7796 6.33303 1.803 0 0 0 0 0 0 0
11.7819 6.47859 1.81301 0 0 0 0 0 0 0
11.7824 6.61325 1.7993 0 0 0 0 0 0 0
11.7829 6.76356 1.78677 0 0 0 0 0 0 0
11.7851 6.91601 1.77978 0 0 0 0 0 0 0
11.7828 7.06585 1.78303 0 0 0 0 0 0 0
11.7848 7.23623 1.77922 0 0 0 0 0 0 0
11.7886 7.37232 1.76153 0 0 0 0 0 0 0
11.7846 7.53588 1.76874 0 0 0 0 0 0 0
11.7867 7.68578 1.76622 0 0 0 0 0 0 0
11.7847 7.82532 1.7682 0 0 0 0 0 0 0
11.7864 7.97967 1.76778 0 0 0 0 0 0 0
11.7863 8.13879 1.76035 0 0 0 0 0 0 0
11.7847 8.28137 1.75658 0 0 0 0 0 0 0
11.7888 8.41938 1.74462 0 0 0 0 0 0 0
11.787 8.56783 1.74914 0 0 0 0 0 0 0
11.7898 8.72979 1.74686 0 0 0 0 0 0 0
11.7891 8.87578 1.75174 0 0 0 0 0 0 0
11.7897 9.01852 1.75751 0 0 0 0 0 0 0
11.7901 9.17612 1.74955 0 0 0 0 0 0 0
11.7911 9.32391 1.75198 0 0 0 0 0 0 0
11.7909 9.47452 1.76949 0 0 0 0 0 0 0
11.7926 9.61803 1.76424 0 0 0 0 0 0 0
11.7914 9.76651 1.72663 0 0 0 0 0 0 0
11.7921 9.91979 1.73913 0 0 0 0 0 0 0
11.7924 10.0601 1.73619 0 0 0 0 0 0 0
11.7929 10.2068 1.72245 0 0 0 0 0 0 0
11.7931 10.3545 1.73675 0 0 0 0 0 0 0
11.7949 10.5041 1.75233 0 0 0 0 0 0 0
11.7941 10.6535 1.70723 0 0 0 0 0 0 0
11.7908 10.7913 1.70127 0 0 0 0 0 0 0
11.7936 10.9482 1.71525 0 0 0 0 0 0 0
11.7917 11.1031 1.73219 0 0 0 0 0 0 0
11.7933 11.2439 1.74139 0 0 0 0 0 0 0
11.7967 11.3973 1.68844 0 0 0 0 0 0 0
11.7951 11.5561 1.69646 0 0 0 0 0 0 0
11.7709 11.7308 1.71297 0 0 0 0 0 0 0
11.7172 11.787 1.68166 0 0 0 0 0 0 0
11.7871 3.03414 2.07198 0 0 0 0 0 0 0
11.7803 3.16387 2.05912 0 0 0 0 0 0 0
11.7894 3.32542 2.04445 0 0 0 0 0 0 0
11.7787 3.48581 2.02682 0 0 0 0 0 0 0
11.7859 3.61267 2.03299 0 0 0 0 0 0 0
11.7788 3.74138 2.02261 0 0 0 0 0 0 0
11.7717 3.90991 2.01631 0 0 0 0 0 0 0
11.7739 4.07773 2.01111 0 0 0 0 0 0 0
11.7676 4.21031 2.00139 0 0 0 0 0 0 0
11.7665 4.35845 2.00043 0 0 0 0 0 0 0
11.7677 4.51631 2.029 0 0 0 0 0 0 0
11.7721 4.68064 1.99761 0 0 0 0 0 0 0
11.772 4.83769 2.00106 0 0 0 0 0 0 0
11.7725 4.97577 1.98894 0 0 0 0 0 0 0
11.7741 5.12423 2.00316 0 0 0 0 0 0 0
11.7751 5.28119 1.98539 0 0 0 0 0 0 0
11.7754 5.40436 1.98025 0 0 0 0 0 0 0
11.7721 5.5738 1.98952 0 0 0 0 0 0 0
11.7707 5.74959 1.9867 0 0 0 0 0 0 0
11.7732 5.87351 1.98739 0 0 0 0 0 0 0
11.774 6.0221 1.97931 0 0 0 0 0 0 0
11.7756 6.17933 1.96582 0 0 0 0 0 0 0
11.7755 6.34078 1.95302 0 0 0 0 0 0 0
11.7758 6.4845 1.9821 0 0 0 0 0 0 0
11.7764 6.62774 1.96684 0 0 0 0 0 0 0
11.7772 6.78041 1.9622 0 0 0 0 0 0 0
11.778 6.93829 1.95803 0 0 0 0 0 0 0
11.7788 7.08159 1.95514 0 0 0 0 0 0 0
11.7796 7.23198 1.95296 0 0 0 0 0 0 0
11.7809 7.38701 1.94687 0 0 0 0 0 0 0
11.7812 7.55443 1.95074 0 0 0 0 0 0 0
11.7813 7.69974 1.95641 0 0 0 0 0 0 0
11.7826 7.82477 1.95112 0 0 0 0 0 0 0
11.7817 7.97677 1.94139 0 0 0 0 0 0 0
11.7832 8.12501 1.92815 0 0 0 0 0 0 0
11.7839 8.26834 1.93063 0 0 0 0 0 0 0
11.7851 8.42206 1.92099 0 0 0 0 0 0 0
11.7853 8.56475 1.9217 0 0 0 0 0 0 0
11.786 8.70371 1.9264 0 0 0 0 0 0 0
11.7867 8.8601 1.91673 0 0 0 0 0 0 0
11.7874 9.00945 1.92325 0 0 0 0 0 0 0
11.7871 9.16434 1.91232 0 0 0 0 0 0 0
11.7878 9.31208 1.92026 0 0 0 0 0 0 0
11.7876 9.48533 1.91619 0 0 0 0 0 0 0
11.7883 9.64006 1.90574 0 0 0 0 0 0 0
11.7919 9.78522 1.86175 0 0 0 0 0 0 0
11.7925 9.92538 1.87252 0 0 0 0 0 0 0
11.7931 10.0715 1.88436 0 0 0 0 0 0 0
11.7939 10.2297 1.88224 0 0 0 0 0 0 0
11.7937 10.3885 1.88111 0 0 0 0 0 0 0
11.7931 10.5395 1.87789 0 0 0 0 0 0 0
11.792 10.6648 1.84728 0 0 0 0 0 0 0
11.7912 10.8071 1.85902 0 0 0 0 0 0 0
11.7918 10.9828 1.87676 0 0 0 0 0 0 0
11.7986 11.1314 1.86085 0 0 0 0 0 0 0
11.7955 11.2642 1.84085 0 0 0 0 0 0 0
11.7905 11.3988 1.83299 0 0 0 0 0 0 0
11.7954 11.5597 1.86088 0 0 0 0 0 0 0
11.7696 11.7248 1.86832 0 0 0 0 0 0 0
11.717 11.7864 1.89282 0 0 0 0 0 0 0
11.7944 2.39475 2.26393 0 0 0 0 0 0 0
11.793 2.57203 2.21908 0 0 0 0 0 0 0
11.7939 2.74113 2.20342 0 0 0 0 0 0 0
11.787 2.89772 2.19567 0 0 0 0 0 0 0
11.7814 3.03457 2.19026 0 0 0 0 0 0 0
11.7711 3.18344 2.1792 0 0 0 0 0 0 0
11.763 3.33003 2.1696 0 0 0 0 0 0 0
11.7835 3.47009 2.16754 0 0 0 0 0 0 0
11.7786 3.63483 2.21056 0 0 0 0 0 0 0
11.7851 3.7683 2.19139 0 0 0 0 0 0 0
11.7718 3.92041 2.17728 0 0 0 0 0 0 0
11.7724 4.06842 2.16949 0 0 0 0 0 0 0
11.7769 4.22728 2.17089 0 0 0 0 0 0 0
11.7764 4.38894 2.16492 0 0 0 0 0 0 0
11.7625 4.53411 2.18466 0 0 0 0 0 0 0
11.7656 4.67456 2.16914 0 0 0 0 0 0 0
11.7642 4.83568 2.15058 0 0 0 0 0 0 0
11.7649 4.9874 2.15108 0 0 0 0 0 0 0
11.7668 5.13095 2.15886 0 0 0 0 0 0 0
11.7664 5.26639 2.14276 0 0 0 0 0 0 0
11.7678 5.43345 2.12131 0 0 0 0 0 0 0
11.7654 5.57453 2.12738 0 0 0 0 0 0 0
11.7663 5.74305 2.11359 0 0 0 0 0 0 0
11.7671 5.88545 2.10273 0 0 0 0 0 0 0
11.7705 6.00276 2.13824 0 0 0 0 0 0 0
11.7718 6.16101 2.11436 0 0 0 0 0 0 0
11.7718 6.3344 2.10151 0 0 0 0 0 0 0
11.7697 6.47603 2.11506 0 0 0 0 0 0 0
11.7727 6.60604 2.1246 0 0 0 0 0 0 0
11.7733 6.76031 2.10421 0 0 0 0 0 0 0
11.7756 6.92022 2.1246 0 0 0 0 0 0 0
11.773 7.07116 2.08772 0 0 0 0 0 0 0
11.7758 7.19943 2.10483 0 0 0 0 0 0 0
11.7765 7.35486 2.10188 0 0 0 0 0 0 0
11.7754 7.52934 2.0766 0 0 0 0 0 0 0
11.7762 7.67579 2.07502 0 0 0 0 0 0 0
11.777 7.82142 2.0743 0 0 0 0 0 0 0
11.7813 7.96501 2.05812 0 0 0 0 0 0 0
11.7817 8.13412 2.04924 0 0 0 0 0 0 0
11.7826 8.28848 2.05232 0 0 0 0 0 0 0
11.7835 8.44149 2.05614 0 0 0 0 0 0 0
11.7843 8.58711 2.06066 0 0 0 0 0 0 0
11.7889 8.73823 2.04574 0 0 0 0 0 0 0
11.7849 8.88196 2.03994 0 0 0 0 0 0 0
11.7859 9.0424 2.04749 0 0 0 0 0 0 0
11.7868 9.19462 2.05545 0 0 0 0 0 0 0
11.7882 9.33936 2.0244 0 0 0 0 0 0 0
11.7868 9.47019 2.05145 0 0 0 0 0 0 0
11.7897 9.60815 2.04135 0 0 0 0 0 0 0
11.7902 9.77323 2.03515 0 0 0 0 0 0 0
11.7913 9.92695 2.04192 0 0 0 0 0 0 0
11.7911 10.0737 2.03075 0 0 0 0 0 0 0
11.7931 10.2333 2.02839 0 0 0 0 0 0 0
11.7933 10.3727 2.00622 0 0 0 0 0 0 0
11.7949 10.5031 2.02952 0 0 0 0 0 0 0
11.7945 10.6656 2.02702 0 0 0 0 0 0 0
11.7963 10.8155 2.02621 0 0 0 0 0 0 0
11.7946 10.972 2.02536 0 0 0 0 0 0 0
11.7926 11.1302 1.99397 0 0 0 0 0 0 0
11.7989 11.286 1.99356 0 0 0 0 0 0 0
11.7931 11.4274 2.00493 0 0 0 0 0 0 0
11.8003 11.5608 2.02765 0 0 0 0 0 0 0
11.7734 11.7183 1.98671 0 0 0 0 0 0 0
11.7917 1.99121 2.39385 0 0 0 0 0 0 0
11.7888 2.12056 2.3642 0 0 0 0 0 0 0
11.7867 2.28267 2.32288 0 0 0 0 0 0 0
11.7827 2.45404 2.30461 0 0 0 0 0 0 0
11.7877 2.69272 2.32991 0 0 0 0 0 0 0
11.785 2.83742 2.32798 0 0 0 0 0 0 0
11.8218 3.00328 2.3464 0 0 0 0 0 0 0
11.7854 3.14953 2.31702 0 0 0 0 0 0 0
11.7804 3.34407 2.31936 0 0 0 0 0 0 0
11.7603 3.49477 2.31578 0 0 0 0 0 0 0
11.7574 3.62516 2.31409 0 0 0 0 0 0 0
11.7592 3.77714 2.33707 0 0 0 0 0 0 0
11.7615 3.90918 2.31167 0 0 0 0 0 0 0
11.7646 4.06825 2.29709 0 0 0 0 0 0 0
11.763 4.21771 2.29362 0 0 0 0 0 0 0
11.7614 4.38506 2.28125 0 0 0 0 0 0 0
11.7623 4.55417 2.29616 0 0 0 0 0 0 0
11.7625 4.69536 2.30259 0 0 0 0 0 0 0
11.7633 4.83685 2.28802 0 0 0 0 0 0 0
11.7639 4.9676 2.31056 0 0 0 0 0 0 0
11.7669 5.11805 2.28553 0 0 0 0 0 0 0
11.7692 5.29717 2.26514 0 0 0 0 0 0 0
11.7681 5.43695 2.28211 0 0 0 0 0 0 0
11.7694 5.57077 2.27509 0 0 0 0 0 0 0
11.7684 5.7471 2.27445 0 0 0 0 0 0 0
11.7706 5.87613 2.25329 0 0 0 0 0 0 0
11.7701 6.03583 2.25721 0 0 0 0 0 0 0
11.7704 6.18915 2.24102 0 0 0 0 0 0 0
11.7721 6.35807 2.24219 0 0 0 0 0 0 0
11.7743 6.50195 2.25394 0 0 0 0 0 0 0
11.7738 6.62921 2.27193 0 0 0 0 0 0 0
11.7749 6.78341 2.26832 0 0 0 0 0 0 0
11.776 6.94212 2.26524 0 0 0 0 0 0 0
11.7769 7.08965 2.26356 0 0 0 0 0 0 0
11.778 7.24405 2.26261 0 0 0 0 0 0 0
11.7808 7.40661 2.22465 0 0 0 0 0 0 0
11.7817 7.55799 2.22563 0 0 0 0 0 0 0
11.7821 7.70313 2.24539 0 0 0 0 0 0 0
11.7833 7.81336 2.22894 0 0 0 0 0 0 0
11.7842 7.9669 2.23213 0 0 0 0 0 0 0
11.7854 8.13802 2.22582 0 0 0 0 0 0 0
11.7816 8.29365 2.23962 0 0 0 0 0 0 0
11.7839 8.41347 2.22566 0 0 0 0 0 0 0
11.7855 8.57765 2.22331 0 0 0 0 0 0 0
11.7826 8.73407 2.21796 0 0 0 0 0 0 0
11.7847 8.86849 2.22064 0 0 0 0 0 0 0
11.7856 9.0257 2.22862 0 0 0 0 0 0 0
11.7864 9.17627 2.2228 0 0 0 0 0 0 0
11.7874 9.33147 2.18214 0 0 0 0 0 0 0
11.7882 9.49046 2.19265 0 0 0 0 0 0 0
11.7875 9.62467 2.17306 0 0 0 0 0 0 0
11.7897 9.75353 2.21178 0 0 0 0 0 0 0
11.7892 9.91597 2.19558 0 0 0 0 0 0 0
11.789 10.0721 2.17741 0 0 0 0 0 0 0
11.7901 10.2306 2.16999 0 0 0 0 0 0 0
11.7939 10.3739 2.17476 0 0 0 0 0 0 0
11.7936 10.5401 2.17643 0 0 0 0 0 0 0
11.7898 10.6904 2.18106 0 0 0 0 0 0 0
11.7938 10.8251 2.15227 0 0 0 0 0 0 0
11.7965 10.994 2.14458 0 0 0 0 0 0 0
11.7949 11.154 2.14318 0 0 0 0 0 0 0
11.7956 11.3049 2.16175 0 0 0 0 0 0 0
11.7963 11.4417 2.17899 0 0 0 0 0 0 0
11.7975 11.5784 2.18372 0 0 0 0 0 0 0
11.7788 11.725 2.11406 0 0 0 0 0 0 0
11.7169 11.7859 2.10742 0 0 0 0 0 0 0
11.7894 1.37127 2.57216 0 0 0 0 0 0 0
11.7874 1.58431 2.52322 0 0 0 0 0 0 0
11.7873 1.78516 2.47769 0 0 0 0 0 0 0
