ply
format ascii 1.0
element face 0
property list uchar int vertex_indices
element vertex 671
property float x
property float y
property float z
property float nx
property float ny
property float nz
property uchar red
property uchar green
property uchar blue
end_header
-13.6839395 5.2183747 0.2017695 -0.0000000 1.0000000 -0.0000000 10 1 0
6.6410605 5.2183747 1.3267695 -0.0000000 1.0000000 0.0000000 0 1 2
-11.2089395 0.9433747 -0.3982305 0.4527939 -0.8915152 0.0133506 8 254 0
5.6660605 -5.1316253 0.4267695 -0.9848914 -0.1021868 0.1398096 0 248 1
-13.0089395 3.2683747 -0.2482305 0.0277513 0.6328458 -0.7737804 10 0 0
2.5160605 -1.9816253 1.4017695 -1.0000000 0.0000000 0.0000000 0 251 1
4.6910605 2.7433747 0.9517695 0.4778009 0.8778772 0.0322161 0 0 1
-14.0589395 5.2183747 -0.1732305 0.0423081 0.9740414 -0.2223811 11 1 0
6.4910605 -4.7566253 -0.6982305 0.0286168 -0.0359731 -0.9989429 0 248 0
-8.4339395 2.9683747 -0.6232305 0.0418987 -0.0353612 -0.9984959 5 0 0
-2.5089395 1.6183747 -0.6982305 0.0000000 0.0000000 -1.0000000 0 254 0
0.1910605 1.3183747 -0.6982305 -0.0000000 0.0000000 -1.0000000 0 254 0
2.5160605 0.3433747 0.2767695 -1.0000000 0.0000000 -0.0000000 0 253 0
-11.7339395 5.2183747 0.8767695 0.0000000 1.0000000 -0.0000000 8 1 1
-14.8839395 3.1933747 1.4767695 -1.0000000 0.0000000 0.0000000 11 0 2
-12.1839395 2.1433747 -0.6982305 0.0000000 -0.0000000 -1.0000000 9 255 0
8.1410605 -8.4316253 1.7017695 0.2312144 -0.9726677 0.0213868 1 244 2
4.5410605 -4.4566253 -0.6982305 -0.0939723 0.0094873 -0.9955296 0 248 0
-0.7089395 4.0183747 -0.6982305 -0.0000000 0.0000000 -1.0000000 0 0 0
4.2410605 -4.3066253 -0.6982305 0.0898942 0.0518611 -0.9946001 0 249 0
6.6410605 -6.0316253 -0.6982305 0.0675099 0.0415292 -0.9968539 0 247 0
-0.7839395 0.9433747 0.1267695 -0.0000000 -1.0000000 0.0000000 0 254 0
0.9410605 0.9433747 0.4267695 0.0000000 -1.0000000 -0.0000000 0 254 1
3.3410605 2.8933747 -0.6982305 0.0000000 -0.0000000 -1.0000000 0 0 0
-11.5089395 3.6433747 -0.6232305 -0.0790721 -0.0894015 -0.9928519 8 0 0
8.2910605 -5.1316253 1.4017695 1.0000000 -0.0000000 0.0000000 1 248 1
-14.8839395 0.1933747 -0.3232305 -1.0000000 0.0000000 0.0000000 11 253 0
4.2410605 -1.2316253 -0.6982305 0.0064542 -0.0465600 -0.9988946 0 251 0
5.1410605 -4.5316253 -0.6982305 -0.0000000 -0.0000000 -1.0000000 0 248 0
3.9410605 2.8183747 -0.6982305 -0.0000000 0.0000000 -1.0000000 0 255 0
-0.2589395 4.0183747 -0.6982305 0.0683350 0.0575444 -0.9960015 0 0 0
-14.8089395 0.7933747 -0.6982305 -0.4130089 -0.0430694 -0.9097080 11 254 0
-4.0839395 3.0433747 -0.6982305 0.0000000 -0.0000000 -1.0000000 0 0 0
2.5160605 -0.4066253 0.5017695 -1.0000000 -0.0000000 0.0000000 0 252 1
5.6660605 -3.7816253 1.7017695 -1.0000000 0.0000000 -0.0000000 0 249 2
0.5660605 5.2183747 0.2017695 0.0000000 1.0000000 -0.0000000 0 1 0
4.2410605 -4.2316253 -0.6982305 0.0872418 0.0417894 -0.9953103 0 248 0
2.5160605 -0.8566253 -0.2482305 -1.0000000 0.0000000 0.0000000 0 252 0
4.2410605 -4.1566253 -0.6982305 0.0565357 -0.0072262 -0.9983744 0 249 0
6.1910605 -8.4316253 -0.2482305 -0.0000000 -1.0000000 0.0000000 0 244 0
-14.8839395 -2.0566253 1.1767695 -1.0000000 0.0000000 0.0000000 11 251 1
4.5410605 -4.6066253 -0.6982305 -0.1275625 0.1169675 -0.9849093 0 248 0
2.5160605 -2.6566253 -0.1732305 -1.0000000 -0.0000000 -0.0000000 0 250 0
8.2910605 0.2683747 1.1017695 1.0000000 0.0000000 -0.0000000 1 253 1
8.2910605 1.0183747 0.2017695 1.0000000 0.0000000 -0.0000000 1 254 0
4.3160605 -2.5816253 -0.6982305 0.0579087 -0.0318320 -0.9978143 0 250 0
4.6910605 -4.2316253 -0.6982305 -0.0878407 0.0136822 -0.9960406 0 249 0
-11.1339395 0.9433747 -0.3232305 0.3810070 -0.9204673 -0.0870263 7 254 0
7.8410605 5.2183747 -0.1732305 0.0000000 1.0000000 -0.0000000 0 1 0
3.2660605 -7.0816253 -0.6982305 -0.1054498 0.0630231 -0.9924255 0 246 0
-8.5089395 4.1683747 -0.6982305 -0.0000000 -0.0000000 -1.0000000 5 0 0
4.8410605 -4.5316253 -0.6982305 -0.0000000 -0.0000000 -1.0000000 0 248 0
-6.3339395 4.4683747 -0.3982305 -0.4984329 -0.1167293 -0.8590337 3 0 0
-10.0089395 0.9433747 -0.5482305 -0.0316990 -0.9817706 -0.1874076 7 254 0
1.8410605 5.2183747 0.6517695 0.0000000 1.0000000 0.0000000 0 1 1
-6.0339395 0.9433747 0.6517695 -0.0000000 -1.0000000 -0.0000000 2 254 1
5.5160605 -5.2816253 -0.1732305 -0.9911518 0.0000000 -0.1327332 0 247 0
-10.8339395 2.9683747 -0.6982305 0.0683350 0.0575444 -0.9960015 7 0 0
4.9910605 -4.6066253 -0.6982305 0.0000000 -0.0000000 -1.0000000 0 248 0
5.5160605 -3.1066253 0.5017695 -0.6648501 -0.7468680 -0.0127473 0 250 1
3.1910605 5.2183747 -0.2482305 0.0000000 1.0000000 0.0000000 0 1 0
-10.8339395 5.1433747 -0.6982305 -0.0000000 0.3723964 -0.9280738 7 1 0
-5.4339395 5.2183747 0.3517695 -0.0000000 1.0000000 -0.0000000 2 1 1
-8.2839395 0.9433747 1.3267695 0.0000000 -1.0000000 -0.0000000 5 254 1
5.8910605 -6.7066253 -0.6982305 -0.0024486 -0.0722196 -0.9973858 0 246 0
-8.0589395 3.7933747 -0.6982305 0.0187766 0.0407884 -0.9989914 5 0 0
8.2910605 3.4933747 1.6267695 1.0000000 -0.0000000 0.0000000 1 0 2
5.1410605 -4.6066253 -0.6982305 -0.0000000 -0.0000000 -1.0000000 0 248 0
6.1910605 -1.9066253 -0.6982305 0.1042481 -0.0096620 -0.9945044 0 251 0
5.2910605 -4.3816253 -0.6982305 0.0815487 0.0086843 -0.9966315 0 248 0
-10.3089395 0.9433747 -0.0232305 0.0000000 -1.0000000 -0.0000000 7 254 0
-14.8839395 0.6433747 0.3517695 -0.9896766 -0.1392759 -0.0338003 11 253 1
4.9910605 -7.4566253 -0.6232305 -0.2409880 -0.0393306 -0.9697308 0 245 0
5.2910605 -3.7066253 -0.6982305 0.2107127 -0.0337955 -0.9769637 0 249 0
8.2910605 1.9933747 0.6517695 1.0000000 0.0000000 -0.0000000 1 255 1
8.1410605 -7.0066253 -0.6982305 -0.0355379 0.0250872 -0.9990534 1 246 0
8.2910605 -4.8316253 0.1267695 1.0000000 -0.0000000 0.0000000 1 248 0
4.8410605 -4.3066253 -0.6982305 -0.0000000 0.0000000 -1.0000000 0 249 0
4.8410605 -4.6066253 -0.6982305 -0.0000000 -0.0000000 -1.0000000 0 248 0
6.1910605 1.1683747 -0.6982305 -0.0425199 0.0000000 -0.9990956 0 254 0
6.7910605 -8.4316253 0.3517695 -0.0000000 -1.0000000 0.0000000 0 244 1
8.2160605 -2.7316253 -0.6982305 0.5736972 0.0000000 -0.8190675 1 250 0
-8.1339395 3.6433747 -0.6982305 0.0376638 -0.0054599 -0.9992756 4 0 0
4.4660605 -3.8566253 -0.6982305 -0.0000000 0.0000000 -1.0000000 0 249 0
-10.8339395 1.6183747 -0.6982305 -0.0000000 -0.0372033 -0.9993077 7 254 0
5.7410605 -2.8066253 -0.6982305 0.0000000 0.0000000 -1.0000000 0 250 0
3.3410605 5.2183747 1.2517695 -0.0000000 1.0000000 -0.0000000 0 1 1
0.0410605 5.1433747 -0.6982305 0.0157378 -0.0246135 -0.9995732 0 1 0
-4.3089395 0.9433747 1.2517695 0.0000000 -1.0000000 0.0000000 1 254 1
-7.6839395 5.2183747 -0.2482305 0.0000000 1.0000000 0.0000000 4 1 0
8.2910605 -5.7316253 1.4017695 1.0000000 0.0000000 0.0000000 1 247 1
5.6660605 2.5933747 -0.6982305 0.0130460 0.2262532 -0.9739812 0 255 0
7.6160605 0.7933747 -0.6982305 0.0000000 -0.0000000 -1.0000000 0 254 0
-14.8839395 -2.3566253 1.7767695 -1.0000000 0.0000000 0.0000000 11 250 2
4.3910605 -7.0066253 -0.6982305 0.0000000 0.0787169 -0.9968970 0 246 0
5.2160605 -4.1566253 -0.6982305 -0.0000000 -0.0000000 -1.0000000 0 249 0
-2.3589395 5.2183747 -0.4732305 -0.0040223 0.9989177 -0.0463388 0 1 0
2.5160605 -4.0066253 0.2767695 -1.0000000 -0.0000000 0.0000000 0 249 0
0.6410605 5.2183747 1.6267695 0.0000000 1.0000000 -0.0000000 0 1 2
6.0410605 -5.5816253 -0.6982305 0.0000000 0.0000000 -1.0000000 0 247 0
2.5160605 -7.9816253 1.1767695 -1.0000000 -0.0000000 -0.0000000 0 245 1
-14.8839395 0.9433747 1.3267695 -1.0000000 0.0000000 0.0000000 11 254 1
4.1660605 -3.9316253 -0.6982305 -0.0527675 -0.1101683 -0.9925112 0 249 0
-2.9589395 1.0183747 -0.6982305 0.0830192 -0.5799103 -0.8104393 0 254 0
2.5160605 -2.5066253 1.8517695 -1.0000000 -0.0000000 0.0000000 0 250 2
-6.7839395 3.1933747 -0.6982305 -0.0517136 0.0708672 -0.9961443 3 0 0
0.9410605 2.6683747 -0.6982305 0.3175258 0.0000000 -0.9482496 0 255 0
-11.4339395 0.6433747 -0.4732305 0.0537405 -0.8286690 -0.5571531 8 253 0
-6.5589395 4.6933747 -0.6982305 -0.0304142 -0.0264857 -0.9991864 3 1 0
-9.6339395 2.4433747 -0.6982305 0.0178424 -0.0659935 -0.9976605 6 255 0
4.3160605 -3.7816253 -0.6982305 -0.0000000 0.0000000 -1.0000000 0 249 0
8.2910605 -6.4816253 0.9517695 1.0000000 0.0000000 0.0000000 1 246 1
-4.6089395 4.8433747 -0.6982305 -0.0000000 -0.0000000 -1.0000000 1 1 0
-1.7589395 2.5183747 -0.6982305 0.0000000 -0.0000000 -1.0000000 0 255 0
2.9660605 -2.1316253 -0.6982305 -0.0467924 -0.0648104 -0.9967999 0 251 0
4.1660605 -3.5566253 -0.6982305 0.0447807 0.0356174 -0.9983617 0 249 0
4.4660605 3.4933747 -0.6982305 0.2487310 0.0000000 -0.9685726 0 0 0
5.2910605 -1.9816253 -0.6982305 0.0000000 -0.0000000 -1.0000000 0 251 0
-5.4339395 0.9433747 0.9517695 0.0000000 -1.0000000 -0.0000000 2 254 1
2.5910605 2.3683747 -0.6982305 0.0000000 0.0000000 -1.0000000 0 255 0
3.3410605 3.0433747 -0.6982305 0.0000000 -0.0000000 -1.0000000 0 0 0
-10.8339395 0.9433747 -0.4732305 0.0359715 -0.9965840 -0.0743390 7 254 0
1.6160605 5.2183747 -0.0982305 -0.0000000 1.0000000 0.0000000 0 1 0
2.9660605 -3.2566253 -0.6232305 -0.0242181 -0.0157484 -0.9995826 0 249 0
7.3160605 -4.6066253 -0.6982305 -0.0000000 -0.0000000 -1.0000000 0 248 0
-9.6339395 0.9433747 1.3267695 -0.0000000 -1.0000000 -0.0000000 6 254 1
3.1160605 -1.9066253 -0.6982305 -0.0594129 -0.0501866 -0.9969711 0 251 0
6.0410605 4.6933747 -0.6982305 0.0000000 0.0000000 -1.0000000 0 1 0
5.5910605 -7.9066253 -0.3232305 -1.0000000 -0.0000000 -0.0000000 0 245 0
6.8660605 1.6183747 -0.6982305 -0.0000000 -0.1107347 -0.9938500 0 254 0
-10.2339395 0.9433747 1.0267695 0.0000000 -1.0000000 -0.0000000 7 254 1
5.1410605 -6.7816253 -0.6982305 -0.0974244 -0.0000000 -0.9952429 0 246 0
2.5910605 -5.0566253 -0.6982305 -0.2928162 0.0000000 -0.9561687 0 248 0
5.2910605 -8.4316253 1.1017695 -0.0000000 -1.0000000 0.0000000 0 244 1
6.7160605 -4.6066253 -0.6982305 -0.0000000 -0.0000000 -1.0000000 0 248 0
-14.8839395 1.8433747 -0.3982305 -1.0000000 0.0000000 0.0000000 11 255 0
4.1660605 -7.9816253 -0.6982305 -0.0159360 0.0000000 -0.9998730 0 245 0
6.7910605 -6.3316253 -0.6982305 0.0832206 -0.0420830 -0.9956422 0 246 0
4.4660605 -3.7066253 -0.6982305 0.0173340 0.0392118 -0.9990806 0 249 0
6.7910605 -6.7066253 -0.6982305 0.1032372 -0.0228672 -0.9943939 0 246 0
-7.9839395 1.9933747 -0.6982305 0.0000000 0.0000000 -1.0000000 4 255 0
4.4660605 -3.6316253 -0.6982305 0.0286785 0.0302234 -0.9991317 0 249 0
-9.6339395 4.5433747 -0.6982305 0.0000000 0.0000000 -1.0000000 6 0 0
3.7160605 -7.9816253 -0.6982305 0.1078076 0.1158426 -0.9873996 0 245 0
-5.2089395 4.0183747 -0.6982305 0.0000000 0.0000000 -1.0000000 2 0 0
-8.8089395 2.8183747 -0.6232305 -0.0425199 0.0000000 -0.9990956 5 255 0
4.6910605 -1.6066253 -0.6982305 -0.0569259 -0.0524468 -0.9969999 0 251 0
8.2910605 5.1433747 1.7017695 0.8797521 0.4728870 0.0491342 1 1 2
7.7660605 0.2683747 -0.6982305 0.0000000 -0.0000000 -1.0000000 0 253 0
3.7910605 4.0933747 -0.6982305 0.0000000 0.0000000 -1.0000000 0 0 0
2.8910605 -7.2316253 -0.6232305 -0.0167527 0.0000000 -0.9998597 0 246 0
4.6910605 -3.5566253 -0.6982305 0.0231410 0.1358730 -0.9904560 0 249 0
-12.2589395 0.4933747 -0.2482305 -0.0053932 -0.9783318 -0.2069731 9 253 0
1.8410605 1.0933747 -0.6982305 -0.0523446 -0.1935554 -0.9796920 0 254 0
2.5910605 -0.4816253 -0.6982305 -0.6314256 -0.0326860 -0.7747472 0 252 0
2.8160605 -7.0066253 -0.6982305 0.0000000 0.1107347 -0.9938500 0 246 0
3.1160605 -7.1566253 -0.6232305 -0.0900751 0.0776231 -0.9929054 0 246 0
3.7910605 5.2183747 -0.0232305 -0.0000000 1.0000000 0.0000000 0 1 0
-13.6089395 1.8433747 -0.6982305 0.0177942 0.6216974 -0.7830553 10 254 0
1.1660605 2.4433747 -0.3982305 0.1214468 0.3991716 -0.9087974 0 255 0
-7.3839395 4.6183747 -0.6982305 -0.0013155 0.0365094 -0.9993324 4 0 0
-8.2089395 3.9433747 -0.6982305 0.0543060 -0.0553471 -0.9969892 5 0 0
-14.8839395 0.0433747 -0.1732305 -1.0000000 0.0000000 0.0000000 11 253 0
2.5160605 0.6433747 0.8017695 -1.0000000 0.0000000 -0.0000000 0 253 1
8.1410605 -7.2316253 -0.6982305 0.0355379 -0.0250872 -0.9990534 1 245 0
4.8410605 -3.9316253 -0.6982305 0.0000000 -0.0000000 -1.0000000 0 249 0
5.0660605 2.7433747 1.1017695 0.0000000 1.0000000 0.0000000 0 255 1
-14.8839395 4.8433747 -0.2482305 -0.7885491 -0.0335663 -0.6140551 11 1 0
4.8410605 -3.7816253 -0.6982305 -0.0182891 0.0334218 -0.9992740 0 249 0
-1.3089395 1.0183747 -0.6982305 0.0534342 -0.4440503 -0.8944071 0 254 0
-14.8839395 0.1933747 -0.1732305 -1.0000000 0.0000000 0.0000000 11 253 0
0.0410605 5.0683747 -0.6982305 -0.0513855 0.0058868 -0.9986615 0 1 0
-3.6339395 5.2183747 0.6517695 -0.0000000 1.0000000 -0.0000000 0 1 1
-10.6839395 3.3433747 -0.6982305 -0.0529599 -0.1112999 -0.9923747 7 0 0
8.1410605 -6.1066253 -0.6232305 -0.0355379 0.0250872 -0.9990534 1 247 0
-12.1089395 0.5683747 -0.4732305 -0.0382855 -0.8664144 -0.4978557 9 253 0
-5.8839395 3.7183747 -0.6982305 0.0000000 0.0000000 -1.0000000 2 0 0
-2.3589395 3.7933747 -0.6982305 -0.0000000 0.0000000 -1.0000000 0 0 0
-11.1339395 0.4933747 -0.3232305 0.0330445 -0.9017532 -0.4309863 7 253 0
5.1410605 -3.9316253 -0.6982305 -0.0000000 -0.0000000 -1.0000000 0 249 0
-3.9339395 5.2183747 1.0267695 0.0000000 1.0000000 -0.0000000 0 1 1
2.5160605 -4.6066253 0.5017695 -1.0000000 0.0000000 0.0000000 0 248 1
3.4160605 -3.1816253 -0.6982305 -0.0370855 0.0000000 -0.9993121 0 250 0
6.9410605 5.1433747 -0.6982305 -0.0000000 0.3723964 -0.9280738 0 1 0
-5.2839395 2.1433747 -0.6982305 0.0000000 -0.0000000 -1.0000000 2 255 0
2.2910605 5.2183747 0.2767695 0.0000000 1.0000000 0.0000000 0 1 1
-8.7339395 5.2183747 1.7767695 -0.0000000 1.0000000 0.0000000 5 1 2
8.2910605 -3.0316253 0.3517695 1.0000000 -0.0000000 0.0000000 1 250 0
2.5160605 -1.9066253 0.5017695 -1.0000000 0.0000000 0.0000000 0 251 1
-11.8839395 5.2183747 -0.3232305 0.0000000 1.0000000 -0.0000000 8 1 0
4.1660605 -2.8066253 -0.6982305 0.0359843 0.0737279 -0.9966290 0 250 0
-11.4339395 1.7683747 -0.6982305 0.0078272 -0.0430452 -0.9990425 8 255 0
-2.8089395 3.2683747 -0.6982305 -0.0000000 0.0000000 -1.0000000 0 0 0
6.8660605 1.6933747 -0.6982305 0.0000000 -0.1107347 -0.9938500 0 254 0
3.0410605 1.6183747 -0.6982305 -0.0000000 0.0000000 -1.0000000 0 254 0
6.9410605 -7.3816253 -0.6982305 0.0000000 0.1107347 -0.9938500 0 245 0
4.8410605 -3.5566253 -0.6982305 -0.0850376 0.1045151 -0.9908810 0 249 0
5.1410605 -3.4816253 -0.6982305 -0.0000000 0.0000000 -1.0000000 0 249 0
5.4410605 -4.5316253 -0.6982305 0.3323244 0.0181817 -0.9429899 0 248 0
5.4410605 2.7433747 -0.0982305 -0.0000000 1.0000000 -0.0000000 0 255 0
-0.8589395 5.2183747 -0.3982305 0.0000000 1.0000000 -0.0000000 0 1 0
5.4410605 -4.4566253 -0.6982305 0.4172242 0.0351912 -0.9081220 0 248 0
-0.4089395 0.9433747 -0.6982305 0.0000000 -0.8219256 -0.5695949 0 254 0
6.3410605 -3.3316253 -0.6982305 0.0000000 0.0000000 -1.0000000 0 249 0
-8.1339395 4.6183747 -0.6982305 0.0000000 0.0000000 -1.0000000 4 0 0
-8.1339395 1.0933747 -0.6232305 -0.0153138 -0.0794510 -0.9967211 4 254 0
-0.7839395 5.2183747 1.3267695 -0.0000000 1.0000000 -0.0000000 0 1 1
6.6410605 0.4933747 -0.6232305 0.0238204 0.0698371 -0.9972740 0 253 0
7.3160605 0.8683747 -0.6982305 0.0000000 -0.0000000 -1.0000000 0 254 0
-10.9839395 1.9933747 -0.6982305 -0.0000000 0.0000000 -1.0000000 7 255 0
2.8160605 -8.4316253 0.2017695 -0.0000000 -1.0000000 -0.0000000 0 244 0
4.9910605 -6.4066253 -0.6982305 -0.0967602 0.0132253 -0.9952199 0 246 0
-5.4339395 0.9433747 -0.1732305 0.0000000 -1.0000000 0.0000000 2 254 0
-14.8839395 -2.5066253 1.7767695 -1.0000000 0.0000000 0.0000000 11 250 2
6.3410605 2.7433747 -0.6232305 0.0125164 -0.0517044 -0.9985840 0 0 0
3.9410605 -3.7816253 -0.6982305 -0.0209291 -0.0362589 -0.9991232 0 249 0
5.7410605 -4.6066253 -0.6982305 -0.3254176 0.0646198 -0.9433598 0 248 0
6.3410605 -0.7816253 -0.6232305 -0.0249344 0.0295478 -0.9992523 0 252 0
8.2910605 -2.0566253 0.8767695 1.0000000 -0.0000000 -0.0000000 1 251 1
-14.8839395 2.2933747 1.4767695 -1.0000000 0.0000000 0.0000000 11 255 2
-3.1089395 3.8683747 -0.6982305 -0.0000000 -0.0000000 -1.0000000 0 0 0
5.7410605 -4.4566253 -0.6982305 -0.3283619 0.0305035 -0.9440593 0 248 0
0.9410605 1.2433747 -0.6982305 -0.0899253 0.0320880 -0.9954315 0 254 0
4.0160605 -2.6566253 -0.6982305 -0.0717761 0.0711266 -0.9948815 0 250 0
5.7410605 -4.3816253 -0.6982305 -0.2491018 0.0177701 -0.9683143 0 248 0
-0.1839395 4.3183747 -0.6232305 -0.0670032 -0.0430699 -0.9968227 0 0 0
5.8910605 -4.4566253 -0.6982305 -0.1507493 -0.0000000 -0.9885720 0 248 0
-14.8839395 2.5183747 0.2767695 -1.0000000 0.0000000 0.0000000 11 255 1
-14.7339395 2.9683747 -0.6982305 -0.1230478 -0.0000000 -0.9924007 11 0 0
5.7410605 -4.2316253 -0.6982305 -0.2548161 -0.0031318 -0.9669844 0 248 0
-7.6089395 5.2183747 0.6517695 -0.0000000 1.0000000 -0.0000000 4 1 1
6.1160605 1.3183747 -0.6232305 -0.0000000 -0.0000000 -1.0000000 0 254 0
5.7410605 -4.1566253 -0.6982305 -0.2152892 0.0104498 -0.9764944 0 249 0
8.2910605 -1.9066253 1.1767695 1.0000000 -0.0000000 -0.0000000 1 251 1
8.2910605 2.5933747 0.9517695 1.0000000 0.0000000 -0.0000000 1 255 1
2.5160605 -6.7816253 1.1017695 -1.0000000 0.0000000 0.0000000 0 246 1
3.1160605 -2.5816253 -0.6982305 -0.0373223 -0.0547015 -0.9978050 0 250 0
6.4910605 -4.6066253 -0.6982305 0.0000000 0.0000000 -1.0000000 0 248 0
-13.0839395 3.1183747 -0.6982305 -0.0000000 0.2483274 -0.9686762 9 0 0
2.9660605 -2.8066253 -0.6982305 0.0011234 0.0285179 -0.9995927 0 250 0
6.4910605 -4.4566253 -0.6982305 0.0000000 -0.0000000 -1.0000000 0 248 0
4.9160605 4.0933747 -0.6982305 0.0412170 -0.1450834 -0.9885606 0 0 0
2.5160605 -1.4566253 0.1267695 -1.0000000 -0.0000000 -0.0000000 0 251 0
4.3910605 0.6433747 -0.6982305 0.0000000 -0.0000000 -1.0000000 0 253 0
-14.7339395 5.2183747 0.8767695 -0.1001700 0.9945889 0.0275497 11 1 1
-7.3089395 5.2183747 1.0267695 0.0000000 1.0000000 0.0000000 4 1 1
6.4910605 -4.3816253 -0.6982305 0.0000000 -0.0000000 -1.0000000 0 248 0
6.1910605 -4.2316253 -0.6982305 -0.0000000 -0.0000000 -1.0000000 0 249 0
7.0910605 -6.9316253 -0.6232305 0.0000000 -0.0314846 -0.9995042 0 246 0
-14.8839395 0.3433747 -0.2482305 -0.9490922 0.3075500 0.0680952 11 253 0
6.4910605 -4.2316253 -0.6982305 0.0000000 -0.0000000 -1.0000000 0 249 0
-11.4339395 4.4683747 -0.6982305 0.0000000 -0.0000000 -1.0000000 8 0 0
-8.4339395 0.9433747 1.1017695 -0.0000000 -1.0000000 0.0000000 5 254 1
-1.6839395 0.9433747 1.7767695 0.0000000 -1.0000000 0.0000000 0 254 2
7.9910605 -6.7066253 -0.6232305 -0.0355379 0.0250872 -0.9990534 0 246 0
6.3410605 -4.1566253 -0.6982305 0.0000000 -0.0000000 -1.0000000 0 249 0
3.6410605 -6.7816253 -0.6232305 0.0136994 -0.0406330 -0.9990802 0 246 0
5.6660605 -3.9316253 1.5517695 -1.0000000 0.0000000 -0.0000000 0 249 2
3.7160605 -6.2566253 -0.6232305 0.1365571 -0.0835289 -0.9871044 0 246 0
-0.5589395 3.3433747 -0.6982305 -0.0000000 0.0000000 -1.0000000 0 0 0
4.3910605 -0.7816253 -0.6982305 0.0000000 0.0000000 -1.0000000 0 252 0
-12.0339395 1.0183747 0.2767695 0.8739340 -0.4858819 0.0125769 8 254 1
-11.5839395 0.4933747 -0.0982305 0.0018302 -0.9989334 -0.0461381 8 253 0
3.4910605 -5.3566253 -0.6982305 0.0042944 -0.0675222 -0.9977085 0 247 0
7.0160605 2.9683747 -0.6982305 0.0182551 -0.0660384 -0.9976501 0 0 0
6.4910605 -4.0816253 -0.6982305 -0.0000000 -0.0000000 -1.0000000 0 249 0
3.8660605 -1.5316253 -0.6982305 0.0545121 -0.0079256 -0.9984817 0 251 0
-5.6589395 5.2183747 -0.5482305 0.0000000 0.9796813 -0.2005604 2 1 0
-4.0089395 0.9433747 1.2517695 -0.0000000 -1.0000000 0.0000000 1 254 1
2.5160605 -4.1566253 0.2017695 -1.0000000 0.0000000 -0.0000000 0 249 0
-12.7839395 5.2183747 1.2517695 0.0000000 1.0000000 -0.0000000 9 1 1
-14.8839395 0.0433747 -0.6982305 -0.9930854 0.0833465 -0.0826730 11 253 0
8.2910605 -3.4816253 0.2017695 1.0000000 -0.0000000 -0.0000000 1 249 0
5.8160605 -4.0066253 -0.6982305 -0.2042193 0.0028005 -0.9789212 0 249 0
5.3660605 2.7433747 0.9517695 0.0000000 1.0000000 -0.0000000 0 255 1
5.7410605 0.1183747 -0.6232305 0.1405495 -0.0100006 -0.9900231 0 253 0
5.6660605 -3.6316253 -0.6982305 -0.5838317 0.0180391 -0.8116743 0 249 0
2.5160605 -5.2066253 0.8767695 -1.0000000 0.0000000 -0.0000000 0 248 1
4.6910605 -6.4066253 -0.6982305 0.0425199 0.0000000 -0.9990956 0 246 0
-14.4339395 5.1433747 -0.2482305 0.0574886 0.4389323 -0.8966791 11 1 0
-8.5089395 0.9433747 -0.4732305 0.0793280 -0.9603104 -0.2674154 5 254 0
1.9910605 2.5933747 -0.6982305 0.0000000 -0.0000000 -1.0000000 0 255 0
7.8410605 4.6933747 -0.6982305 0.0000000 0.0000000 -1.0000000 0 1 0
8.2910605 -1.9816253 -0.1732305 1.0000000 0.0000000 0.0000000 1 251 0
5.5160605 -7.6816253 0.5017695 -1.0000000 -0.0000000 0.0000000 0 245 1
3.4160605 -7.9816253 -0.6982305 0.0685556 0.0812706 -0.9943315 0 245 0
7.1660605 2.8933747 -0.6982305 0.0011234 0.0285179 -0.9995927 0 0 0
5.8160605 -3.7066253 -0.6982305 -0.1615088 -0.0000000 -0.9868713 0 249 0
3.9410605 4.1683747 -0.6982305 0.0000000 -0.0000000 -1.0000000 0 0 0
5.8160605 -3.6316253 -0.6982305 -0.1998066 -0.0000000 -0.9798354 0 249 0
7.2410605 -8.4316253 1.7767695 0.0000000 -1.0000000 -0.0000000 0 244 2
5.8160605 -3.5566253 -0.6982305 -0.1816694 0.0242999 -0.9830594 0 249 0
8.2910605 -3.9316253 -0.3982305 1.0000000 0.0000000 -0.0000000 1 249 0
-14.8839395 1.2433747 -0.5482305 -0.9736095 0.0116485 -0.2279227 11 254 0
5.3660605 3.8683747 0.4267695 -0.0934437 -0.9955718 0.0102488 0 0 1
5.6660605 -8.3566253 -0.6982305 0.0432822 -0.4035739 -0.9139227 0 244 0
-14.4339395 0.4933747 -0.0232305 -0.0000000 -1.0000000 0.0000000 11 253 0
3.4910605 -6.8566253 -0.6232305 0.2401345 -0.0179384 -0.9705739 0 246 0
-12.1839395 4.1683747 -0.5482305 -0.3262428 0.0748549 -0.9423176 9 0 0
5.9660605 -3.9316253 -0.6982305 0.0000000 -0.0000000 -1.0000000 0 249 0
5.6660605 -7.4566253 0.0517695 -0.7586520 0.1336112 -0.6376482 0 245 0
6.1160605 -4.0066253 -0.6982305 -0.0000000 -0.0000000 -1.0000000 0 249 0
-8.1339395 3.1183747 -0.6982305 -0.0514313 0.0675260 -0.9963910 4 0 0
6.1160605 -3.8566253 -0.6982305 0.0000000 0.0000000 -1.0000000 0 249 0
-11.5089395 0.4933747 0.1267695 -0.0000000 -1.0000000 -0.0000000 8 253 0
8.2910605 -7.0816253 1.5517695 1.0000000 -0.0000000 -0.0000000 1 245 2
-13.0839395 5.2183747 0.2017695 -0.0000000 1.0000000 -0.0000000 9 1 0
6.2660605 -3.8566253 -0.6982305 -0.0000000 0.0000000 -1.0000000 0 249 0
5.9660605 -3.7066253 -0.6982305 0.0000000 -0.0000000 -1.0000000 0 249 0
-3.3339395 3.5683747 -0.6982305 0.0000000 0.0000000 -1.0000000 0 0 0
1.5410605 1.8433747 -0.6982305 0.0000000 0.0000000 -1.0000000 0 255 0
8.2910605 -5.4316253 1.5517695 1.0000000 -0.0000000 -0.0000000 1 247 2
6.1160605 -3.5566253 -0.6982305 0.0000000 -0.0000000 -1.0000000 0 249 0
6.6410605 5.2183747 0.5017695 0.0000000 1.0000000 0.0000000 0 1 1
6.1160605 -3.4816253 -0.6982305 0.0000000 0.0000000 -1.0000000 0 249 0
-8.4339395 1.3183747 -0.6982305 -0.0152845 -0.0899529 -0.9958287 5 254 0
-11.4339395 1.5433747 -0.6232305 0.0289367 -0.1091697 -0.9936019 8 254 0
6.0410605 -0.4066253 -0.6982305 0.0981909 -0.0000000 -0.9951676 0 252 0
5.5160605 -6.3316253 0.9517695 -0.9124708 -0.4091418 -0.0000000 0 246 1
-8.8089395 2.4433747 -0.6232305 -0.0043845 -0.0247403 -0.9996843 5 255 0
-8.2089395 5.2183747 1.2517695 -0.0000000 1.0000000 -0.0000000 5 1 1
2.5160605 -3.2566253 -0.6982305 -0.4634294 -0.0326261 -0.8855330 0 249 0
-4.5339395 5.2183747 1.7767695 -0.0000000 1.0000000 -0.0000000 1 1 2
6.4910605 2.7433747 -0.6982305 0.0606851 0.0498165 -0.9969131 0 0 0
-8.4339395 2.0683747 -0.6982305 0.0399107 -0.0352676 -0.9985807 5 255 0
3.7910605 0.1933747 -0.6982305 0.0000000 0.0000000 -1.0000000 0 253 0
7.7660605 2.1433747 -0.6982305 0.0355379 -0.0250872 -0.9990534 0 255 0
-8.5089395 2.6683747 -0.6232305 0.0306668 0.0170853 -0.9993836 5 255 0
3.3410605 -7.3066253 -0.6232305 0.1542290 -0.0382885 -0.9872930 0 246 0
1.6910605 2.4433747 -0.4732305 -0.7912103 0.4306217 -0.4342248 0 255 0
-4.0839395 3.5683747 -0.6982305 0.0000000 0.0000000 -1.0000000 0 0 0
-5.5089395 3.8683747 -0.6982305 0.0000000 -0.0000000 -1.0000000 2 0 0
2.5160605 -3.0316253 -0.6982305 -0.4586833 0.0362885 -0.8878585 0 250 0
2.5160605 -2.8816253 -0.6982305 -0.4099559 -0.0061089 -0.9120849 0 250 0
2.5160605 -0.1066253 1.6267695 -1.0000000 0.0000000 -0.0000000 0 253 2
3.0410605 -4.8316253 -0.6982305 0.0980089 -0.0581039 -0.9934879 0 248 0
-0.1839395 5.2183747 -0.5482305 0.0963445 0.9610612 -0.2589965 0 1 0
2.8160605 -3.1066253 -0.6982305 0.1021425 -0.0000000 -0.9947698 0 250 0
-1.9089395 2.9683747 -0.6982305 0.0000000 -0.0000000 -1.0000000 0 0 0
2.6660605 -2.9566253 -0.6982305 0.0185863 -0.0554072 -0.9982908 0 250 0
-6.8589395 4.9933747 -0.6982305 0.0009702 -0.0285104 -0.9995930 3 1 0
2.5160605 -0.7066253 0.4267695 -1.0000000 -0.0000000 -0.0000000 0 252 1
0.6410605 2.7433747 -0.6982305 0.0000000 0.0000000 -1.0000000 0 0 0
5.6660605 -4.5316253 0.6517695 -0.9786860 0.0496045 0.1992817 0 248 1
4.6160605 3.9433747 0.2767695 0.9089120 -0.4169880 0.0000000 0 0 0
-10.6839395 5.2183747 -0.0982305 -0.0000000 1.0000000 0.0000000 7 1 0
-3.7839395 2.8183747 -0.6982305 -0.0000000 0.0000000 -1.0000000 0 0 0
-7.1589395 4.9933747 -0.6982305 -0.0199914 -0.0803523 -0.9965660 4 1 0
-5.1339395 5.2183747 0.2017695 -0.0000000 1.0000000 -0.0000000 1 1 0
5.6660605 -6.1066253 0.1267695 -0.9848914 0.1021868 0.1398096 0 247 0
-13.3089395 2.1433747 -0.6982305 -0.7872339 -0.0567604 -0.6140367 10 255 0
3.7160605 -2.6566253 -0.6982305 0.0000000 -0.0000000 -1.0000000 0 250 0
4.9160605 -7.0816253 -0.6232305 -0.1690201 -0.0530347 -0.9841847 0 245 0
2.5160605 -2.6566253 -0.6982305 -0.7523841 0.0000000 -0.6587246 0 250 0
-12.4839395 2.9683747 -0.6982305 0.0000000 -0.0000000 -1.0000000 9 0 0
0.4910605 1.0183747 -0.6982305 0.1055785 -0.2607760 -0.9596088 0 254 0
-0.4089395 4.5433747 -0.6982305 -0.0784721 -0.0629157 -0.9949290 0 0 0
4.1660605 -4.9066253 -0.6232305 0.1036685 -0.0632706 -0.9925974 0 248 0
2.8160605 -2.6566253 -0.6982305 0.0996516 -0.1256787 -0.9870534 0 250 0
0.4910605 1.9183747 -0.6982305 0.0880408 0.0155199 -0.9959960 0 255 0
2.5160605 -2.5066253 -0.6982305 -0.7523841 -0.0000000 -0.6587246 0 250 0
2.5160605 -2.3566253 -0.6982305 -0.4578762 0.0809690 -0.8853211 0 250 0
-8.0589395 5.2183747 -0.1732305 -0.0000000 1.0000000 0.0000000 5 1 0
2.6660605 -2.4316253 -0.6982305 -0.0743348 0.0498728 -0.9959855 0 250 0
8.2910605 -7.8316253 0.5767695 1.0000000 -0.0000000 -0.0000000 1 245 1
8.2910605 -6.1816253 0.2017695 1.0000000 -0.0000000 -0.0000000 1 247 0
2.8160605 -2.2816253 -0.6982305 -0.0295316 0.1358765 -0.9902855 0 250 0
-7.6839395 2.8933747 -0.6982305 -0.0597669 0.1098093 -0.9921541 4 0 0
3.1160605 -3.3316253 -0.6982305 -0.0000000 0.0314846 -0.9995042 0 249 0
1.6910605 3.4183747 -0.6982305 0.0000000 -0.0000000 -1.0000000 0 0 0
2.1410605 1.6933747 -0.6982305 -0.0000000 -0.0000000 -1.0000000 0 255 0
-12.9339395 1.1683747 -0.6982305 0.0000000 0.0000000 -1.0000000 9 254 0
5.5160605 -7.4566253 0.3517695 -0.9997514 0.0044146 0.0218560 0 245 1
7.0160605 -0.4816253 -0.6982305 -0.0781616 0.0000000 -0.9969407 0 252 0
5.6660605 -4.5316253 1.4767695 -1.0000000 0.0000000 0.0000000 0 248 2
4.2410605 -2.2816253 -0.6232305 -0.0613750 -0.0694175 -0.9956979 0 250 0
3.4910605 -4.0816253 -0.6982305 0.0000000 0.0000000 -1.0000000 0 248 0
4.0910605 -0.1816253 -0.6982305 0.0000000 0.0000000 -1.0000000 0 253 0
3.2660605 -3.4066253 -0.6982305 0.0395588 0.0391979 -0.9984481 0 249 0
-9.9339395 2.8933747 -0.6982305 -0.0127618 0.0891618 -0.9959354 6 0 0
-0.9339395 0.9433747 1.6267695 -0.0000000 -1.0000000 0.0000000 0 254 2
5.5160605 -7.6816253 1.7767695 -0.8369585 -0.0869797 0.5403101 0 245 2
6.0410605 -1.4566253 -0.6982305 0.0000000 0.0000000 -1.0000000 0 251 0
6.1160605 0.8683747 -0.6232305 -0.0206331 0.0235588 -0.9995095 0 254 0
5.5160605 -6.5566253 -0.3982305 -0.9129477 0.0000000 0.4080765 0 246 0
-12.2589395 4.7683747 -0.5482305 -0.3705436 0.0328147 -0.9282352 9 0 0
3.2660605 -3.1816253 -0.6982305 0.0666257 -0.0000000 -0.9977780 0 250 0
8.0660605 1.7683747 -0.6232305 0.0355379 0.0250872 -0.9990534 1 255 0
4.6160605 3.7183747 0.1267695 1.0000000 -0.0000000 0.0000000 0 0 0
8.2910605 4.0183747 0.5017695 1.0000000 0.0000000 -0.0000000 1 0 0
4.3160605 -7.2316253 -0.6982305 -0.0000000 -0.1107347 -0.9938500 0 246 0
3.7910605 -4.3066253 -0.6982305 0.0059292 0.2116225 -0.9773335 0 249 0
-11.5839395 2.9683747 -0.6982305 0.0000000 0.0000000 -1.0000000 8 0 0
2.9660605 -3.0316253 -0.6982305 -0.0204670 -0.0009573 -0.9997901 0 250 0
2.2910605 2.5933747 -0.6982305 -0.0000000 0.0000000 -1.0000000 0 255 0
-9.9339395 3.5683747 -0.6982305 0.0544768 0.0609394 -0.9966537 6 0 0
5.5160605 -3.6316253 0.1267695 -0.9776837 -0.0405609 -0.2061298 0 249 0
-2.5089395 5.1433747 -0.6982305 -0.0000000 0.3723964 -0.9280738 0 1 0
2.9660605 -2.8816253 -0.6982305 -0.0194944 0.0275352 -0.9994307 0 250 0
-0.7089395 2.2183747 -0.6982305 -0.0000000 0.0000000 -1.0000000 0 255 0
8.0660605 -3.4816253 -0.6982305 0.0568139 0.0034481 -0.9983788 1 249 0
2.5160605 -2.3566253 -0.3232305 -1.0000000 -0.0000000 -0.0000000 0 250 0
0.9410605 2.7433747 -0.6982305 0.2884971 -0.0124799 -0.9573994 0 0 0
7.5410605 -7.0066253 -0.6982305 0.0312940 0.0636422 -0.9974820 0 246 0
3.4160605 -2.8816253 -0.6982305 -0.1154861 0.0000000 -0.9933091 0 250 0
5.6660605 -8.4316253 -0.0982305 -0.1425495 -0.9896116 0.0186685 0 244 0
3.5660605 -3.2566253 -0.6982305 0.0671374 -0.0678933 -0.9954311 0 249 0
-14.8839395 0.0433747 0.5767695 -1.0000000 0.0000000 0.0000000 11 253 1
8.0660605 3.2683747 -0.6982305 0.0974244 -0.0000000 -0.9952429 1 0 0
-9.8589395 5.2183747 0.1267695 0.0000000 1.0000000 -0.0000000 6 1 0
5.5910605 -8.4316253 0.3517695 0.0000000 -1.0000000 -0.0000000 0 244 0
3.0410605 -4.0816253 -0.6982305 -0.0000000 -0.1107347 -0.9938500 0 249 0
-2.2089395 2.2933747 -0.6982305 -0.0000000 -0.0000000 -1.0000000 0 255 0
4.6160605 2.7433747 0.5017695 0.7027834 0.7101448 0.0423060 0 255 1
7.5410605 -8.4316253 1.1017695 -0.0000000 -1.0000000 -0.0000000 0 244 1
-3.2589395 4.0183747 -0.6982305 0.0000000 0.0000000 -1.0000000 0 0 0
5.5910605 -6.9316253 1.0267695 -0.9996078 -0.0280044 -0.0000000 0 246 1
3.2660605 -8.3566253 -0.6982305 0.0000000 -0.3723964 -0.9280738 0 244 0
1.3160605 0.9433747 1.7017695 0.0000000 -1.0000000 0.0000000 0 254 2
-13.5339395 2.3683747 -0.4732305 -0.0419826 -0.9196201 -0.3905590 10 255 0
-9.4839395 3.2683747 -0.6982305 0.0772653 -0.0858694 -0.9933059 6 0 0
2.5160605 -3.4066253 -0.2482305 -1.0000000 -0.0000000 0.0000000 0 249 0
4.5410605 -4.3066253 -0.6982305 -0.1337278 -0.0281680 -0.9906177 0 249 0
-1.3089395 3.2683747 -0.6982305 0.0000000 0.0000000 -1.0000000 0 0 0
-14.5089395 0.8683747 -0.6982305 0.0420960 -0.2443353 -0.9687766 11 254 0
4.0160605 -3.4066253 -0.6982305 -0.0248623 0.1134441 -0.9932333 0 249 0
-11.1339395 5.2183747 0.7267695 -0.0000000 1.0000000 0.0000000 7 1 1
3.8660605 -3.1816253 -0.6982305 -0.0142395 0.0662581 -0.9977009 0 250 0
4.0160605 -3.2566253 -0.6982305 0.0054472 0.0606891 -0.9981419 0 249 0
2.5160605 -6.4066253 1.8517695 -1.0000000 0.0000000 0.0000000 0 246 2
8.2910605 4.4683747 0.3517695 1.0000000 -0.0000000 -0.0000000 1 0 0
4.6160605 -7.0816253 -0.6982305 -0.0719792 -0.0167103 -0.9972661 0 246 0
-4.0089395 4.1683747 -0.6982305 -0.0000000 -0.0000000 -1.0000000 1 0 0
3.2660605 -6.8566253 -0.6982305 -0.1152670 0.0185166 -0.9931620 0 246 0
-8.7339395 0.9433747 1.0267695 -0.0000000 -1.0000000 -0.0000000 5 254 1
2.5160605 -1.9816253 -0.1732305 -1.0000000 0.0000000 0.0000000 0 251 0
4.0160605 -3.1816253 -0.6982305 -0.0637384 -0.0178030 -0.9978078 0 250 0
6.7910605 1.1683747 -0.6232305 -0.1288681 0.0000000 -0.9916617 0 254 0
-7.8339395 0.9433747 1.5517695 -0.0000000 -1.0000000 0.0000000 4 254 2
6.4910605 -7.3816253 -0.6982305 -0.0000000 0.1107347 -0.9938500 0 245 0
3.5660605 -3.1066253 -0.6982305 0.0220034 -0.0576346 -0.9980952 0 250 0
-14.8839395 1.3933747 1.3267695 -1.0000000 0.0000000 0.0000000 11 254 1
3.4160605 -7.2316253 -0.6982305 0.0210903 0.0233566 -0.9995047 0 246 0
-0.4089395 2.1433747 -0.6982305 0.0000000 -0.0000000 -1.0000000 0 255 0
-2.4339395 0.9433747 1.0267695 0.0000000 -1.0000000 -0.0000000 0 254 1
-7.6839395 4.6933747 -0.6982305 0.0880408 -0.0155199 -0.9959960 4 0 0
-2.8089395 5.0683747 -0.6982305 0.0248828 0.1543429 -0.9877040 0 1 0
2.7410605 2.0683747 -0.6982305 -0.0000000 -0.0000000 -1.0000000 0 255 0
5.3660605 -8.4316253 -0.6232305 0.1182022 -0.9398540 -0.3204726 0 244 0
2.5910605 -8.0566253 -0.6232305 -0.4908630 -0.2529602 -0.8337054 0 245 0
-8.2089395 5.2183747 1.5517695 -0.0000000 1.0000000 -0.0000000 5 1 2
6.8660605 -4.9816253 -0.6982305 -0.0000000 -0.1361978 -0.9906817 0 248 0
7.8410605 -8.4316253 1.4017695 -0.0000000 -1.0000000 0.0000000 0 244 1
3.7160605 -2.9566253 -0.6982305 0.0238204 -0.0698371 -0.9972740 0 250 0
3.8660605 -3.1066253 -0.6982305 0.0619314 0.1258143 -0.9901188 0 250 0
-13.4589395 0.4933747 -0.0982305 0.0040223 -0.9989177 -0.0463388 10 253 0
-9.0339395 0.9433747 -0.1732305 0.0000000 -1.0000000 0.0000000 5 254 0
5.5160605 -6.7066253 0.5017695 -0.9373401 -0.0000000 0.3484159 0 246 1
8.1410605 -7.7566253 -0.6232305 -0.0355379 -0.0250872 -0.9990534 1 245 0
5.6660605 -3.7816253 1.0267695 -1.0000000 0.0000000 0.0000000 0 249 1
7.7660605 -5.4316253 -0.6982305 0.0355379 0.0250872 -0.9990534 0 247 0
3.4910605 -5.8066253 -0.6982305 0.0178719 0.0172595 -0.9996913 0 247 0
-14.8839395 2.8183747 0.2767695 -1.0000000 0.0000000 0.0000000 11 255 1
3.8660605 -2.8816253 -0.6982305 -0.1020254 0.0094442 -0.9947370 0 250 0
6.4910605 1.1683747 -0.6982305 -0.0816722 0.0000000 -0.9966592 0 254 0
-12.1839395 1.4683747 -0.6982305 -0.1055149 -0.0803894 -0.9911630 9 254 0
3.4160605 -7.0066253 -0.6982305 0.0543943 -0.0400039 -0.9977179 0 246 0
-9.7839395 0.9433747 0.8017695 0.0000000 -1.0000000 0.0000000 6 254 1
3.7910605 -3.4816253 -0.6232305 -0.0671179 0.0842286 -0.9941834 0 249 0
5.5910605 -1.1566253 -0.6982305 0.0000000 0.0000000 -1.0000000 0 252 0
-5.5089395 0.9433747 0.2017695 0.0000000 -1.0000000 -0.0000000 2 254 0
3.6410605 -7.0816253 -0.6232305 -0.0425199 0.0000000 -0.9990956 0 246 0
-3.7839395 5.2183747 1.5517695 0.0000000 1.0000000 -0.0000000 0 1 2
5.5160605 -4.3066253 0.2767695 -0.9847394 0.1093293 -0.1354085 0 249 0
3.4160605 -2.7316253 -0.6982305 -0.1244254 -0.0813005 -0.9888926 0 250 0
1.2410605 3.4933747 -0.6982305 0.0000000 0.0000000 -1.0000000 0 0 0
5.6660605 -5.1316253 0.2017695 -0.9848914 -0.1021868 -0.1398096 0 248 0
5.0660605 2.7433747 0.9517695 0.0000000 1.0000000 -0.0000000 0 255 1
-2.2089395 5.2183747 0.8017695 0.0000000 1.0000000 -0.0000000 0 1 1
-10.6089395 0.9433747 1.7767695 -0.0000000 -1.0000000 0.0000000 7 254 2
7.7660605 2.0683747 -0.6232305 -0.0108658 -0.0305991 -0.9994727 0 255 0
-6.1839395 1.6933747 -0.6982305 0.0000000 -0.0000000 -1.0000000 3 254 0
1.9160605 0.9433747 0.2017695 -0.0000000 -1.0000000 -0.0000000 0 254 0
2.9660605 -2.5066253 -0.6982305 0.1082558 -0.0472875 -0.9929978 0 250 0
3.1160605 -2.5066253 -0.6982305 -0.0235471 0.0241446 -0.9994311 0 250 0
5.6660605 -8.3566253 -0.3232305 -0.3776569 -0.9259456 0.0000000 0 244 0
8.2910605 2.8933747 0.7267695 1.0000000 0.0000000 0.0000000 1 0 1
3.1160605 -2.4316253 -0.6982305 0.0584847 0.0181128 -0.9981240 0 250 0
5.0660605 2.7433747 0.6517695 0.0000000 1.0000000 0.0000000 0 255 1
7.8410605 -6.4816253 -0.6232305 0.0285201 0.0258413 -0.9992591 0 246 0
-12.3339395 1.4683747 -0.6982305 0.0367582 -0.0888542 -0.9953661 9 254 0
-3.3339395 3.1183747 -0.6982305 0.0000000 0.0000000 -1.0000000 0 0 0
1.9910605 1.0933747 -0.6982305 -0.0379827 -0.1546305 -0.9872420 0 254 0
2.9660605 -2.3566253 -0.6982305 0.0063268 0.0711941 -0.9974424 0 250 0
-9.4089395 5.2183747 1.7017695 -0.0000000 1.0000000 0.0000000 6 1 2
3.7910605 -5.3566253 -0.6982305 -0.0986846 0.1165947 -0.9882647 0 247 0
8.2910605 -7.5316253 1.8517695 1.0000000 -0.0000000 -0.0000000 1 245 2
5.2160605 5.2183747 -0.0982305 -0.0000000 1.0000000 0.0000000 0 1 0
6.1910605 -5.6566253 -0.6982305 0.0726999 0.0446833 -0.9963524 0 247 0
3.2660605 -2.5066253 -0.6982305 -0.0669802 -0.0062238 -0.9977349 0 250 0
5.6660605 -3.6316253 0.1267695 -0.9999292 0.0119022 0.0000000 0 249 0
-5.4339395 0.9433747 0.2767695 0.0000000 -1.0000000 -0.0000000 2 254 0
0.0410605 0.9433747 0.1267695 0.0000000 -1.0000000 0.0000000 0 254 0
4.0160605 -7.9816253 -0.6982305 -0.1154861 0.0000000 -0.9933091 0 245 0
2.5160605 0.4933747 1.2517695 -1.0000000 0.0000000 -0.0000000 0 253 1
6.1910605 -4.0816253 -0.6982305 -0.0000000 0.0000000 -1.0000000 0 248 0
6.4910605 0.1933747 -0.6982305 -0.0557770 -0.0235864 -0.9981646 0 253 0
3.2660605 -2.4316253 -0.6982305 -0.0336340 0.0211254 -0.9992109 0 250 0
1.0910605 5.2183747 1.3267695 -0.0000000 1.0000000 0.0000000 0 1 2
-0.1089395 1.5433747 -0.6982305 0.0000000 0.0000000 -1.0000000 0 254 0
8.2910605 -7.0066253 -0.6982305 0.2656009 -0.0246304 -0.9637684 1 246 0
3.4160605 -2.3566253 -0.6982305 0.0948907 0.0424653 -0.9945815 0 250 0
3.8660605 -2.8066253 -0.6982305 -0.0944893 -0.1040179 -0.9900768 0 250 0
-6.9339395 0.9433747 1.7017695 0.0000000 -1.0000000 0.0000000 3 254 2
-9.0339395 2.2933747 -0.6982305 0.1310814 0.0045971 -0.9913609 5 255 0
5.6660605 -7.7566253 1.1767695 -0.7586520 -0.1336112 0.6376482 0 245 1
4.3160605 -8.2066253 -0.6982305 -0.0371058 0.1132057 -0.9928785 0 245 0
4.0160605 -2.5816253 -0.6982305 -0.0463164 0.1118331 -0.9926470 0 250 0
4.9910605 -5.5066253 -0.6982305 -0.0568139 0.0034481 -0.9983788 0 247 0
4.2410605 0.7183747 -0.6982305 0.0000000 -0.0000000 -1.0000000 0 253 0
3.7160605 -2.5066253 -0.6982305 -0.0171409 -0.0483936 -0.9986813 0 250 0
-4.2339395 3.7183747 -0.6982305 0.0000000 -0.0000000 -1.0000000 1 0 0
3.5660605 -2.2816253 -0.6982305 0.0011234 -0.0285179 -0.9995927 0 250 0
2.1410605 4.3933747 -0.6982305 -0.0000000 -0.0000000 -1.0000000 0 0 0
3.7160605 -2.3566253 -0.6982305 -0.1154861 -0.0000000 -0.9933091 0 250 0
2.5160605 -7.0816253 0.5767695 -1.0000000 0.0000000 0.0000000 0 246 1
-7.4589395 5.2183747 0.7267695 -0.0000000 1.0000000 0.0000000 4 1 1
-0.9339395 0.9433747 -0.3982305 -0.0000000 -1.0000000 0.0000000 0 254 0
-10.6839395 1.8433747 -0.6982305 0.0000000 0.0000000 -1.0000000 7 255 0
3.5660605 -3.4066253 -0.6982305 -0.0797858 0.0709462 -0.9942841 0 249 0
-10.9839395 0.9433747 0.5767695 0.0428042 -0.9990813 -0.0020765 7 254 1
-8.2089395 2.6683747 -0.6232305 0.0285351 -0.1125760 -0.9932333 5 255 0
5.2160605 -8.4316253 0.2017695 -0.0000000 -1.0000000 -0.0000000 0 244 0
8.2910605 -6.3316253 1.0267695 1.0000000 0.0000000 0.0000000 1 246 1
6.7160605 1.5433747 -0.6982305 -0.0425199 0.0000000 -0.9990956 0 254 0
7.6160605 2.5183747 -0.6232305 0.0005243 0.0047648 -0.9999885 0 255 0
8.2910605 -1.3066253 0.8767695 1.0000000 0.0000000 -0.0000000 1 252 1
6.9410605 -8.4316253 1.3267695 -0.0000000 -1.0000000 0.0000000 0 244 2
-8.9589395 4.5433747 -0.4732305 -0.1070078 0.0367738 -0.9935779 5 0 0
2.5160605 -2.1316253 -0.6982305 -0.2656009 0.0246304 -0.9637684 0 251 0
2.5160605 -7.8316253 1.0267695 -1.0000000 -0.0000000 0.0000000 0 245 1
5.6660605 -4.1566253 1.8517695 -1.0000000 0.0000000 -0.0000000 0 249 2
4.4660605 -8.1316253 -0.6982305 0.0000000 0.1107347 -0.9938500 0 245 0
-4.0839395 0.9433747 -0.6982305 0.1044669 -0.7032378 -0.7032378 0 254 0
2.5160605 -2.0566253 -0.6982305 -0.1707842 0.0133421 -0.9852181 0 251 0
-9.1839395 0.9433747 1.3267695 0.0000000 -1.0000000 -0.0000000 6 254 1
-1.3089395 1.3933747 -0.6982305 0.0000000 -0.0000000 -1.0000000 0 254 0
6.0410605 -2.5066253 -0.6982305 0.0000000 -0.0000000 -1.0000000 0 250 0
-2.5089395 1.2433747 -0.6982305 0.0000000 0.0000000 -1.0000000 0 254 0
-14.8839395 2.2183747 -0.0232305 -1.0000000 0.0000000 0.0000000 11 255 0
-3.2589395 0.9433747 0.9517695 0.0000000 -1.0000000 -0.0000000 0 254 1
3.4910605 -0.8566253 -0.6982305 -0.0000000 0.0000000 -1.0000000 0 252 0
8.2910605 -6.9316253 1.1767695 1.0000000 -0.0000000 -0.0000000 1 246 1
-1.9089395 3.1183747 -0.6982305 0.0000000 0.0000000 -1.0000000 0 0 0
6.7160605 3.4183747 -0.6982305 0.0000000 -0.0765911 -0.9970626 0 0 0
6.0410605 -8.4316253 1.2517695 -0.0000000 -1.0000000 -0.0000000 0 244 1
-4.8339395 5.2183747 1.4767695 -0.0000000 1.0000000 0.0000000 1 1 2
-9.0339395 3.4933747 -0.6982305 -0.0196549 -0.0659293 -0.9976307 5 0 0
2.6660605 -2.1316253 -0.6982305 -0.0355379 0.0250872 -0.9990534 0 251 0
5.5160605 -5.7316253 -0.1732305 -0.9819013 -0.1695068 0.0844819 0 247 0
-1.7589395 2.5933747 -0.6982305 0.0000000 -0.0000000 -1.0000000 0 255 0
2.5160605 -6.1816253 0.2767695 -1.0000000 0.0000000 -0.0000000 0 246 1
5.1410605 -5.7316253 -0.6982305 -0.0000000 -0.0000000 -1.0000000 0 247 0
0.4910605 4.3183747 -0.6982305 0.0000000 0.0000000 -1.0000000 0 0 0
6.1160605 -8.4316253 -0.6232305 -0.0023903 -0.8422363 -0.5391033 0 244 0
4.2410605 1.1683747 -0.6982305 0.0000000 0.0000000 -1.0000000 0 254 0
-2.9589395 3.9433747 -0.6982305 -0.0000000 0.0000000 -1.0000000 0 0 0
7.8410605 -8.4316253 -0.6232305 0.0000000 -0.8935051 -0.4490530 0 244 0
5.5160605 -7.0816253 0.4267695 -0.9981073 -0.0614760 -0.0016032 0 246 1
-14.5839395 4.0933747 -0.2482305 -0.0000000 -0.0000000 -1.0000000 11 0 0
3.3410605 3.8683747 -0.6982305 0.0000000 -0.0000000 -1.0000000 0 0 0
7.3160605 1.8433747 -0.6982305 -0.0221412 0.0020711 -0.9997527 0 255 0
6.4910605 -8.4316253 0.4267695 -0.0000000 -1.0000000 -0.0000000 0 244 1
5.4410605 0.3433747 -0.6982305 0.0000000 -0.0000000 -1.0000000 0 253 0
2.8160605 -2.1316253 -0.6982305 0.0355379 -0.0250872 -0.9990534 0 251 0
-1.9089395 3.5683747 -0.6982305 -0.0000000 0.0000000 -1.0000000 0 0 0
4.5410605 -6.4816253 -0.6982305 -0.0000000 -0.1107347 -0.9938500 0 246 0
2.6660605 -2.0566253 -0.6982305 -0.0671374 -0.0678933 -0.9954311 0 251 0
8.2910605 -8.1316253 1.1767695 1.0000000 -0.0000000 -0.0000000 1 245 1
7.6160605 -1.7566253 -0.6982305 0.0000000 0.0000000 -1.0000000 0 251 0
8.0660605 -3.6316253 -0.6982305 0.0568139 -0.0034481 -0.9983788 1 249 0
-9.5589395 0.9433747 1.7767695 -0.0000000 -1.0000000 -0.0000000 6 254 2
2.5160605 -7.6816253 0.2017695 -1.0000000 0.0000000 -0.0000000 0 245 0
8.2910605 -1.9066253 1.4017695 1.0000000 -0.0000000 0.0000000 1 251 2
-1.6089395 4.6183747 -0.6982305 0.0000000 0.0000000 -1.0000000 0 0 0
2.6660605 -1.9816253 -0.6982305 -0.0312940 -0.0636422 -0.9974820 0 251 0
6.7160605 2.5933747 -0.6982305 0.0355379 -0.0250872 -0.9990534 0 255 0
-2.6589395 1.5433747 -0.6982305 0.0000000 0.0000000 -1.0000000 0 254 0
5.8910605 2.7433747 0.1267695 -0.0967602 0.9952199 0.0132253 0 255 0
2.5160605 -1.9066253 -0.6982305 -0.3442181 -0.0857590 -0.9349649 0 251 0
2.5160605 -1.3816253 1.1767695 -1.0000000 0.0000000 -0.0000000 0 251 1
2.2910605 1.1683747 -0.6982305 0.0732008 -0.0960143 -0.9926847 0 254 0
-1.5339395 0.9433747 1.5517695 -0.0000000 -1.0000000 0.0000000 0 254 2
3.1160605 -8.4316253 1.5517695 0.0000000 -1.0000000 -0.0000000 0 244 2
6.1160605 2.9683747 -0.0982305 -0.9952199 0.0967602 -0.0132253 0 0 0
2.5160605 -1.8316253 -0.6982305 -0.3319787 0.0906635 -0.9389197 0 251 0
2.5160605 -4.1566253 0.3517695 -1.0000000 0.0000000 -0.0000000 0 249 1
-10.9839395 1.6183747 -0.6982305 -0.0178038 -0.0712393 -0.9973004 7 254 0
-8.4339395 4.9183747 -0.6982305 0.0000000 0.0000000 -1.0000000 5 1 0
2.8160605 -1.6816253 -0.6982305 -0.0313727 -0.1506322 -0.9880919 0 251 0
2.5160605 -2.5066253 -0.3982305 -1.0000000 -0.0000000 -0.0000000 0 250 0
4.1660605 -8.4316253 0.2767695 0.0000000 -1.0000000 -0.0000000 0 244 0
8.2910605 3.0433747 0.5017695 1.0000000 0.0000000 0.0000000 1 0 1
-11.7339395 4.3183747 -0.6982305 -0.1042758 0.0083599 -0.9945133 8 0 0
-5.1339395 0.9433747 -0.0982305 0.0000000 -1.0000000 -0.0000000 1 254 0
-1.7589395 3.6433747 -0.6982305 0.0000000 -0.0000000 -1.0000000 0 0 0
4.6160605 5.2183747 0.1267695 -0.0000000 1.0000000 0.0000000 0 1 0
7.9910605 -8.4316253 -0.0232305 -0.0000000 -1.0000000 -0.0000000 0 244 0
6.1160605 3.1183747 0.1267695 -1.0000000 -0.0000000 -0.0000000 0 0 0
-5.8089395 0.9433747 -0.6232305 0.0159552 -0.9570043 -0.2896345 2 254 0
2.8160605 -1.5316253 -0.6982305 0.0000000 -0.0666139 -0.9977788 0 251 0
6.9410605 -6.9316253 -0.6982305 -0.0000000 0.0000000 -1.0000000 0 246 0
8.2910605 -1.6816253 0.2767695 1.0000000 0.0000000 -0.0000000 1 251 1
4.0910605 4.2433747 -0.6982305 -0.0000000 0.0000000 -1.0000000 0 0 0
2.6660605 -1.4566253 -0.6982305 -0.1445192 -0.0280624 -0.9891040 0 251 0
-5.1339395 0.9433747 0.1267695 0.0000000 -1.0000000 0.0000000 1 254 0
-11.9589395 1.0933747 0.4267695 0.3948491 -0.9187460 0.0000000 8 254 1
4.9160605 5.2183747 0.4267695 -0.0000000 1.0000000 -0.0000000 0 1 1
2.6660605 -1.3816253 -0.6982305 -0.1609724 -0.0154757 -0.9868376 0 251 0
-8.8839395 3.6433747 -0.6982305 0.0812574 -0.0174274 -0.9965408 5 0 0
-12.0339395 1.0933747 0.5017695 0.8001244 -0.5996132 -0.0162772 8 254 1
-4.0839395 1.5433747 -0.6982305 0.0000000 0.0000000 -1.0000000 0 254 0
5.6660605 -4.8316253 -0.6232305 -0.7225320 0.1352751 -0.6779735 0 248 0
-3.3339395 3.7183747 -0.6982305 0.0000000 0.0000000 -1.0000000 0 0 0
6.2660605 3.3433747 -0.6982305 -0.0781616 0.0000000 -0.9969407 0 0 0
2.5160605 -1.2316253 -0.6982305 -0.5840586 0.0015734 -0.8117099 0 252 0
8.2910605 -1.9066253 0.5767695 1.0000000 -0.0000000 0.0000000 1 251 1
6.3410605 -4.6816253 -0.6982305 0.0000000 0.0000000 -1.0000000 0 248 0
2.5160605 -1.1566253 -0.6982305 -0.7906554 0.0619330 -0.6091210 0 252 0
-13.6089395 0.7183747 -0.6982305 -0.0866698 -0.5306823 -0.8431279 10 253 0
-0.7089395 2.5183747 -0.6982305 -0.0000000 -0.0000000 -1.0000000 0 255 0
0.7910605 0.9433747 0.5017695 -0.0000000 -1.0000000 -0.0000000 0 254 0
-7.9839395 5.1433747 -0.6982305 -0.0029254 0.3918528 -0.9200233 4 1 0
-10.2339395 3.0433747 -0.6982305 -0.0394424 -0.0213707 -0.9989933 7 0 0
2.8160605 -1.3066253 -0.6982305 0.0000000 -0.0000000 -1.0000000 0 251 0
4.9160605 -2.5816253 -0.6982305 -0.0506373 -0.0962338 -0.9940699 0 250 0
6.1910605 -2.4316253 -0.6982305 0.0000000 0.0000000 -1.0000000 0 250 0
-14.8839395 1.3933747 0.5767695 -1.0000000 0.0000000 0.0000000 11 254 1
8.2910605 -5.7316253 1.0267695 1.0000000 0.0000000 0.0000000 1 247 1
8.2910605 4.6183747 0.8767695 1.0000000 -0.0000000 -0.0000000 1 0 1
-14.6589395 3.5683747 -0.2482305 -0.0570219 -0.0023434 -0.9983702 11 0 0
2.6660605 -1.0816253 -0.6982305 -0.2223668 0.0596142 -0.9731388 0 252 0
2.5160605 -2.2066253 -0.4732305 -0.9653712 -0.0115263 -0.2606253 0 251 0
2.9660605 -2.2066253 -0.6982305 -0.0526740 0.0735568 -0.9958990 0 251 0
2.9660605 -2.0566253 -0.6982305 -0.0630222 0.0000000 -0.9980121 0 251 0
-1.7589395 5.2183747 -0.2482305 -0.0000000 1.0000000 0.0000000 0 1 0
-10.6839395 2.5933747 -0.6982305 0.0000000 0.0000000 -1.0000000 7 255 0
-1.3839395 0.9433747 1.1017695 0.0000000 -1.0000000 -0.0000000 0 254 1
0.5660605 0.9433747 -0.2482305 0.0000000 -1.0000000 -0.0000000 0 254 0
4.7660605 -2.4316253 -0.6982305 -0.0376310 -0.0856488 -0.9956145 0 250 0
-4.3839395 2.5933747 -0.6982305 0.0000000 -0.0000000 -1.0000000 1 255 0
3.4910605 3.9433747 -0.6982305 -0.0000000 0.0000000 -1.0000000 0 0 0
-9.0339395 3.3433747 -0.6232305 -0.0348777 -0.1488803 -0.9882400 5 0 0
3.2660605 -2.1316253 -0.6982305 -0.0042150 -0.0693396 -0.9975842 0 251 0
6.1160605 3.3433747 0.5017695 -1.0000000 0.0000000 -0.0000000 0 0 1
-14.8839395 0.1933747 1.4017695 -1.0000000 0.0000000 0.0000000 11 253 2
-14.8839395 3.6433747 1.8517695 -1.0000000 0.0000000 0.0000000 11 0 2
-10.0839395 0.9433747 0.4267695 0.0000000 -1.0000000 -0.0000000 6 254 1
-12.3339395 0.7183747 -0.5482305 0.1159235 -0.7470757 -0.6545530 9 253 0
2.5910605 3.8683747 -0.6982305 0.0000000 -0.0000000 -1.0000000 0 0 0
3.4160605 -2.1316253 -0.6982305 0.0698683 -0.0646862 -0.9954567 0 251 0
-4.6839395 5.2183747 -0.4732305 -0.0198170 0.9989408 -0.0415270 1 1 0
-4.5339395 3.1933747 -0.6982305 0.0000000 0.0000000 -1.0000000 1 0 0
5.8910605 -5.8066253 -0.6982305 -0.0974244 0.0000000 -0.9952429 0 247 0
3.2660605 -1.9816253 -0.6982305 0.0135571 -0.0517916 -0.9985659 0 251 0
3.7910605 5.2183747 0.8767695 -0.0000000 1.0000000 -0.0000000 0 1 1
1.2410605 1.3933747 -0.6982305 -0.0219941 -0.0166346 -0.9996197 0 254 0
-4.8339395 1.7683747 -0.6982305 0.0000000 -0.0000000 -1.0000000 1 255 0
4.8410605 5.2183747 1.6267695 -0.0000000 1.0000000 -0.0000000 0 1 2
3.1910605 -1.0066253 -0.6982305 -0.0000000 -0.0000000 -1.0000000 0 252 0
-0.2589395 1.5433747 -0.6982305 0.0000000 0.0000000 -1.0000000 0 254 0
