ply
format ascii 1.0
element face 0
property list uchar int vertex_indices
element vertex 1165
property float x
property float y
property float z
property uchar red
property uchar green
property uchar blue
end_header
29.8750000 -77.2249980 0.4750000 9 179 0
29.9249990 -77.2249980 0.4250000 9 179 0
29.9249990 -77.2249980 0.4750000 9 179 0
29.9249990 -77.3750000 0.5250000 9 179 0
29.9249990 -77.3249970 0.5250000 9 179 0
29.9750000 -77.3750000 0.5750000 9 179 0
29.8750000 -77.2750020 0.5250000 9 179 0
29.8750000 -77.2750020 0.5750000 9 179 0
29.9249990 -77.2750020 0.5250000 9 179 0
29.9249990 -77.2750020 0.5750000 9 179 0
29.9750000 -77.5250020 0.6250000 9 179 0
29.9750000 -77.4749980 0.6250000 9 179 0
29.9750000 -77.4250030 0.6250000 9 179 0
29.9750000 -77.4250030 0.6750000 9 179 0
29.9750000 -77.4250030 0.7250000 9 179 0
29.9750000 -77.4250030 0.7750000 9 179 0
29.8750000 -77.2750020 0.6250000 9 179 0
29.8750000 -77.2750020 0.6750000 9 179 0
29.9249990 -77.2750020 0.6250000 9 179 0
29.9249990 -77.2750020 0.6750000 9 179 0
29.9249990 -77.3750000 0.7250000 9 179 0
29.9249990 -77.3249970 0.7250000 9 179 0
29.9249990 -77.3750000 0.7750000 9 179 0
29.9249990 -77.3249970 0.7750000 9 179 0
29.8750000 -77.2750020 0.7250000 9 179 0
29.8750000 -77.2750020 0.7750000 9 179 0
29.9249990 -77.2750020 0.7250000 9 179 0
29.9249990 -77.2750020 0.7750000 9 179 0
30.0250000 -77.5749970 0.4250000 0 179 0
30.0250000 -77.5749970 0.4750000 0 179 0
30.0250000 -77.4749980 0.4250000 0 179 0
30.0250000 -77.5749970 0.5250000 0 179 0
30.0250000 -77.5749970 0.5750000 0 179 0
30.0250000 -77.4749980 0.5750000 0 179 0
30.0250000 -77.5250020 0.6250000 0 179 0
30.0750010 -77.5749970 0.6750000 0 179 0
30.0250000 -77.4749980 0.6250000 0 179 0
30.0250000 -77.4749980 0.6750000 0 179 0
30.0250000 -77.5749970 0.7250000 0 179 0
30.0250000 -77.5250020 0.7250000 0 179 0
30.0750010 -77.5749970 0.7750000 0 179 0
30.0250000 -77.4749980 0.7250000 0 179 0
30.0250000 -77.4749980 0.7750000 0 179 0
29.7750000 -77.0250020 0.5750000 9 179 0
29.8750000 -77.1250000 0.4250000 9 179 0
29.8250010 -77.1250000 0.4750000 9 179 0
29.9249990 -77.1750030 0.4250000 9 179 0
29.9249990 -77.1750030 0.4750000 9 179 0
29.8750000 -77.0749970 0.4250000 9 179 0
29.8750000 -77.0250020 0.4250000 9 179 0
29.8750000 -77.0749970 0.4750000 9 179 0
29.8750000 -77.0250020 0.4750000 9 179 0
29.8750000 -77.1750030 0.5250000 9 179 0
29.8750000 -77.1250000 0.5250000 9 179 0
29.8750000 -77.1750030 0.5750000 9 179 0
29.8750000 -77.1250000 0.5750000 9 179 0
29.8750000 -77.0749970 0.5250000 9 179 0
29.8250010 -77.0749970 0.5750000 9 179 0
29.8250010 -77.0250020 0.5750000 9 180 0
29.7750000 -76.9250030 0.4250000 9 180 0
29.7750000 -76.9250030 0.4750000 9 180 0
29.7750000 -76.8750000 0.4250000 9 180 0
29.7750000 -76.8249970 0.4250000 9 180 0
29.7750000 -76.8750000 0.4750000 9 180 0
29.7750000 -76.8249970 0.4750000 9 180 0
29.7750000 -76.9250030 0.5250000 9 180 0
29.7750000 -76.9250030 0.5750000 9 180 0
29.7750000 -76.8750000 0.5250000 9 180 0
29.7750000 -76.8249970 0.5250000 9 180 0
29.7750000 -76.8750000 0.5750000 9 180 0
29.7750000 -76.8249970 0.5750000 9 180 0
29.8250010 -76.9250030 0.4250000 9 180 0
29.8250010 -76.9250030 0.4750000 9 180 0
29.8250010 -76.9250030 0.5250000 9 180 0
29.7750000 -77.0250020 0.6250000 9 179 0
29.7750000 -77.0749970 0.7250000 9 179 0
29.7750000 -77.0749970 0.7750000 9 179 0
29.8750000 -77.1750030 0.6250000 9 179 0
29.8750000 -77.1250000 0.6250000 9 179 0
29.8750000 -77.1750030 0.6750000 9 179 0
29.8750000 -77.1250000 0.6750000 9 179 0
29.8250010 -77.0749970 0.6250000 9 179 0
29.8250010 -77.0250020 0.6250000 9 179 0
29.8750000 -77.0749970 0.6750000 9 179 0
29.8250010 -77.1750030 0.7250000 9 179 0
29.8250010 -77.1250000 0.7250000 9 179 0
29.8250010 -77.1750030 0.7750000 9 179 0
29.8250010 -77.1250000 0.7750000 9 179 0
29.8250010 -77.0749970 0.7250000 9 179 0
29.8250010 -77.0749970 0.7750000 9 179 0
29.7750000 -76.9749980 0.6250000 9 180 0
29.7750000 -76.9749980 0.6750000 9 180 0
29.7750000 -76.9250030 0.6750000 9 180 0
29.7750000 -76.8750000 0.6250000 9 180 0
29.7750000 -76.8249970 0.6250000 9 180 0
29.7750000 -76.8750000 0.6750000 9 180 0
29.7750000 -76.8249970 0.6750000 9 180 0
29.7250000 -76.9250030 0.7250000 9 180 0
29.7250000 -76.9749980 0.7750000 9 180 0
29.7250000 -76.9250030 0.7750000 9 180 0
29.6749990 -76.8249970 0.7750000 9 180 0
29.7750000 -76.8750000 0.7250000 9 180 0
29.7250000 -76.8750000 0.7750000 9 180 0
29.8250010 -76.9749980 0.6250000 9 180 0
29.5750010 -77.6750030 1.3750000 9 179 1
29.5750010 -77.6750030 1.4250000 0 178 0
30.1749990 -78.2249980 0.9750000 0 178 0
30.2250000 -78.3249970 0.8250000 0 178 0
30.2250000 -78.3750000 0.8750000 0 178 0
30.2250000 -78.3249970 0.8750000 0 178 0
30.2250000 -78.2750020 0.8250000 0 178 0
30.2250000 -78.2249980 0.8250000 0 178 0
30.2250000 -78.2750020 0.8750000 0 178 0
30.2250000 -78.2249980 0.8750000 0 178 0
30.2250000 -78.2750020 0.9250000 0 178 0
30.2250000 -78.2750020 0.9750000 0 178 0
30.1749990 -78.1250000 0.8250000 0 178 0
30.1749990 -78.1250000 0.8750000 0 178 0
30.1749990 -78.0250020 0.8250000 0 178 0
30.1749990 -78.0250020 0.8750000 0 178 0
30.1749990 -78.1250000 0.9250000 0 178 0
30.1749990 -78.1250000 0.9750000 0 178 0
30.1749990 -78.0250020 0.9250000 0 178 0
30.1749990 -78.0250020 0.9750000 0 178 0
30.2250000 -78.1250000 0.8250000 0 178 0
30.2250000 -78.1250000 0.8750000 0 178 0
30.2250000 -78.0250020 0.8250000 0 178 0
30.2250000 -78.0250020 0.8750000 0 178 0
30.2250000 -78.1250000 0.9250000 0 178 0
30.2250000 -78.1250000 0.9750000 0 178 1
30.2250000 -78.2750020 1.0250000 0 178 1
30.2250000 -78.2750020 1.0750000 0 178 1
30.2250000 -78.3750000 1.1250000 0 178 1
30.2250000 -78.3249970 1.1250000 0 178 1
30.2250000 -78.3750000 1.1750000 0 178 1
30.2250000 -78.3249970 1.1750000 0 178 1
30.2250000 -78.2750020 1.1250000 0 178 1
30.2250000 -78.2249980 1.1250000 0 178 1
30.2750000 -78.2750020 1.1750000 0 178 1
30.1749990 -78.1750030 1.0250000 0 178 1
30.1749990 -78.1750030 1.0750000 0 178 1
30.1749990 -78.0749970 1.0250000 0 178 1
30.1749990 -78.0749970 1.0750000 0 178 1
30.1749990 -78.1750030 1.1250000 0 178 1
30.1749990 -78.1750030 1.1750000 0 178 1
30.1749990 -78.0749970 1.1250000 0 178 1
30.1749990 -78.0250020 1.1250000 0 178 1
30.1749990 -78.0749970 1.1750000 0 178 1
30.1749990 -78.0250020 1.1750000 0 178 1
30.2250000 -78.1250000 1.0250000 0 178 1
30.2250000 -78.1250000 1.0750000 0 178 1
30.2250000 -78.1750030 1.1250000 0 178 1
30.2250000 -78.1750030 1.1750000 0 178 1
30.2250000 -78.0749970 1.1250000 9 179 1
29.9750000 -77.6250000 1.1250000 9 179 1
29.9750000 -77.6250000 1.1750000 0 179 0
30.1250000 -77.9250030 0.8250000 0 179 0
30.1250000 -77.9749980 0.8750000 0 179 0
30.1250000 -77.9250030 0.8750000 0 179 0
30.1250000 -77.8750000 0.8250000 0 179 0
30.1250000 -77.8249970 0.8250000 0 179 0
30.1749990 -77.8750000 0.8750000 0 179 0
30.1250000 -77.9749980 0.9250000 0 179 0
30.1250000 -77.9250030 0.9250000 0 179 0
30.1250000 -77.9749980 0.9750000 0 179 0
30.1250000 -77.9250030 0.9750000 0 179 0
30.0750010 -77.8249970 0.9750000 0 179 0
30.1749990 -77.8750000 0.9250000 0 179 0
30.1250000 -77.8750000 0.9750000 0 179 0
30.1250000 -77.8249970 0.9750000 0 179 0
30.0750010 -77.7249980 0.8250000 0 179 0
30.0750010 -77.7249980 0.8750000 0 179 0
30.1250000 -77.7249980 0.8250000 0 179 0
30.1250000 -77.7249980 0.8750000 0 179 0
30.0250000 -77.6250000 0.8250000 0 179 0
30.0750010 -77.6750030 0.8750000 0 179 0
30.0750010 -77.6250000 0.8750000 0 179 0
30.0750010 -77.7750020 0.9250000 0 179 0
30.0750010 -77.7750020 0.9750000 0 179 0
30.1250000 -77.7750020 0.9250000 0 179 0
30.1250000 -77.7750020 0.9750000 0 179 0
30.0750010 -77.6750030 0.9250000 0 179 0
30.0750010 -77.6250000 0.9250000 0 179 0
30.0750010 -77.6750030 0.9750000 0 179 0
30.0750010 -77.6250000 0.9750000 0 179 0
30.1250000 -77.9749980 1.0250000 0 179 1
30.1250000 -77.9250030 1.0250000 0 179 1
30.1250000 -77.9749980 1.0750000 0 179 1
30.1250000 -77.9250030 1.0750000 0 179 1
30.0750010 -77.8249970 1.0250000 0 179 1
30.0750010 -77.8249970 1.0750000 0 179 1
30.1749990 -77.8750000 1.0250000 0 179 1
30.1250000 -77.8750000 1.0750000 0 179 1
30.0750010 -77.9250030 1.1750000 0 179 1
30.1749990 -77.9749980 1.1250000 0 179 1
30.1250000 -77.9749980 1.1750000 0 179 1
30.0750010 -77.8750000 1.1250000 0 179 1
30.0750010 -77.8750000 1.1750000 0 179 1
30.0750010 -77.8249970 1.1750000 0 179 1
30.1250000 -77.8249970 1.1250000 0 179 1
30.0750010 -77.7750020 1.0250000 0 179 1
30.0750010 -77.7750020 1.0750000 0 179 1
30.0750010 -77.7249980 1.0750000 0 179 1
30.1250000 -77.7249980 1.0250000 0 179 1
30.0250000 -77.6750030 1.0250000 0 179 1
30.0250000 -77.6250000 1.0250000 0 179 1
30.0250000 -77.6750030 1.0750000 0 179 1
30.0250000 -77.6250000 1.0750000 0 179 1
30.0250000 -77.7750020 1.1250000 0 179 1
30.0250000 -77.7249980 1.1250000 0 179 1
30.0250000 -77.7750020 1.1750000 0 179 1
30.0250000 -77.7249980 1.1750000 0 179 1
30.0250000 -77.6750030 1.1250000 0 179 1
30.0250000 -77.6250000 1.1250000 0 179 1
30.0250000 -77.6250000 1.1750000 9 178 1
29.8750000 -78.3750000 1.4750000 9 178 1
29.8250010 -78.2249980 1.4250000 9 178 1
29.7750000 -78.1750030 1.4250000 9 178 1
29.7750000 -78.1750030 1.4750000 9 178 1
29.6749990 -78.0250020 1.4750000 9 178 1
29.7750000 -78.0749970 1.4250000 9 178 1
29.7750000 -78.0250020 1.4250000 9 178 1
29.7750000 -78.0250020 1.4750000 9 178 1
29.8250010 -78.1250000 1.4250000 9 178 1
29.8750000 -78.1750030 1.4750000 9 178 1
30.1749990 -78.2750020 1.2750000 0 178 1
30.1749990 -78.3249970 1.3250000 0 178 1
30.1749990 -78.2249980 1.3250000 0 178 1
30.1749990 -78.2249980 1.3750000 0 178 1
30.2750000 -78.3750000 1.2250000 0 178 1
30.2750000 -78.3249970 1.2250000 0 178 1
30.2750000 -78.3750000 1.2750000 0 178 1
30.2750000 -78.3249970 1.2750000 0 178 1
30.2250000 -78.2249980 1.2250000 0 178 1
30.2250000 -78.2249980 1.2750000 0 178 1
30.2750000 -78.3750000 1.3250000 0 178 1
30.2250000 -78.3750000 1.3750000 0 178 1
30.2250000 -78.2750020 1.3250000 0 178 1
30.2250000 -78.2750020 1.3750000 0 178 1
30.1749990 -78.1250000 1.2250000 0 178 1
30.1250000 -78.1250000 1.2750000 0 178 1
30.1250000 -78.0749970 1.2250000 0 178 1
30.1250000 -78.0250020 1.2250000 0 178 1
30.1250000 -78.0749970 1.2750000 0 178 1
30.1250000 -78.0250020 1.2750000 0 178 1
30.1250000 -78.1250000 1.3250000 0 178 1
30.1250000 -78.1750030 1.3750000 0 178 1
30.1250000 -78.1250000 1.3750000 0 178 1
30.0750010 -78.0250020 1.3250000 0 178 1
30.0750010 -78.0250020 1.3750000 0 178 1
30.1250000 -78.0250020 1.3250000 0 178 1
30.1250000 -78.0250020 1.3750000 0 178 1
30.0750010 -78.3750000 1.4750000 0 178 1
30.1749990 -78.3249970 1.4250000 0 178 1
30.1749990 -78.3750000 1.4750000 0 178 1
30.1749990 -78.3249970 1.4750000 0 178 1
30.1749990 -78.2249980 1.4250000 0 178 1
30.1749990 -78.2750020 1.4750000 0 178 1
30.2250000 -78.3750000 1.4250000 0 178 1
30.2250000 -78.3750000 1.4750000 0 178 1
30.0750010 -78.1250000 1.4750000 0 178 1
30.1749990 -78.1750030 1.4250000 0 178 1
30.0750010 -78.0749970 1.4250000 0 178 1
30.0750010 -78.0250020 1.4250000 0 178 1
30.0250000 -78.0250020 1.4750000 0 178 1
30.1250000 -78.0749970 1.4250000 9 179 1
29.6749990 -77.8249970 1.3750000 9 179 1
29.9750000 -77.8249970 1.3750000 9 179 1
29.6749990 -77.7750020 1.3750000 9 179 1
29.6749990 -77.7249980 1.3750000 9 179 1
29.6250000 -77.6250000 1.3750000 9 179 1
29.9750000 -77.7249980 1.2750000 9 179 1
29.9750000 -77.6250000 1.2250000 9 179 1
29.9249990 -77.6250000 1.2750000 9 179 1
29.9750000 -77.7750020 1.3250000 9 179 1
29.9750000 -77.7750020 1.3750000 9 179 1
29.9750000 -77.7249980 1.3750000 9 179 1
29.9750000 -77.6750030 1.3250000 9 179 1
29.9750000 -77.6250000 1.3250000 9 179 1
29.9750000 -77.6750030 1.3750000 9 179 1
29.9750000 -77.6250000 1.3750000 9 179 1
29.6749990 -77.9250030 1.4250000 9 179 1
29.7750000 -77.9749980 1.4250000 9 179 1
29.6749990 -77.8750000 1.4250000 9 179 1
29.6749990 -77.8249970 1.4250000 9 179 1
29.7250000 -77.8249970 1.4250000 9 179 1
29.9750000 -77.9250030 1.4750000 9 179 1
29.9750000 -77.8249970 1.4250000 9 179 1
29.9249990 -77.8249970 1.4750000 9 179 1
29.6250000 -77.7750020 1.4250000 9 179 1
29.6250000 -77.7249980 1.4250000 9 179 1
29.9249990 -77.7750020 1.4250000 9 179 1
29.9249990 -77.7249980 1.4250000 9 179 1
29.9249990 -77.7750020 1.4750000 9 179 1
29.9249990 -77.6750030 1.4250000 9 179 1
30.0750010 -77.9749980 1.2250000 0 179 1
30.0750010 -77.9749980 1.2750000 0 179 1
30.1250000 -77.9749980 1.2250000 0 179 1
30.1250000 -77.9749980 1.2750000 0 179 1
30.0750010 -77.8750000 1.2250000 0 179 1
30.0750010 -77.8249970 1.2250000 0 179 1
30.0750010 -77.8750000 1.2750000 0 179 1
30.0750010 -77.8249970 1.2750000 0 179 1
30.0750010 -77.9749980 1.3250000 0 179 1
30.0750010 -77.9250030 1.3250000 0 179 1
30.0250000 -77.9250030 1.3750000 0 179 1
30.1250000 -77.9749980 1.3250000 0 179 1
30.0250000 -77.8750000 1.3250000 0 179 1
30.0250000 -77.8249970 1.3250000 0 179 1
30.0250000 -77.8750000 1.3750000 0 179 1
30.0250000 -77.8249970 1.3750000 0 179 1
30.0750010 -77.7750020 1.2250000 0 179 1
30.0250000 -77.7750020 1.2750000 0 179 1
30.0250000 -77.7249980 1.2750000 0 179 1
30.0250000 -77.6250000 1.2250000 0 179 1
30.0250000 -77.7750020 1.3250000 0 179 1
30.0250000 -77.7750020 1.3750000 0 179 1
30.0250000 -77.9749980 1.4250000 0 179 1
30.0250000 -77.9250030 1.4250000 0 179 1
30.0250000 -77.9749980 1.4750000 0 179 1
30.0250000 -77.8750000 1.4250000 0 179 1
29.5250000 -77.5749970 1.3750000 9 179 1
29.5250000 -77.5250020 1.3750000 9 179 1
29.4750000 -77.4749980 1.3750000 9 179 1
29.5250000 -77.4749980 1.3750000 9 179 1
29.5250000 -77.4250030 1.3750000 9 179 1
29.4249990 -77.3750000 1.3750000 9 179 1
29.4249990 -77.3249970 1.3750000 9 179 1
29.5250000 -77.3750000 1.3750000 9 179 1
29.4249990 -77.2750020 1.3750000 9 179 1
29.4249990 -77.2249980 1.3750000 9 179 1
29.4249990 -77.3750000 1.4250000 9 179 1
29.4249990 -77.3750000 1.4750000 9 179 1
29.3750000 -77.1250000 1.3250000 9 179 1
29.3250010 -77.1250000 1.3750000 9 179 1
29.3500000 -77.0500030 1.3500000 9 179 1
29.4249990 -77.1250000 1.3750000 9 179 1
29.2750000 -76.9749980 1.3250000 9 180 1
29.2750000 -76.9749980 1.3750000 9 180 1
29.3250010 -76.9749980 1.3250000 9 180 1
29.3250010 -76.9749980 1.3750000 9 180 1
29.3250010 -76.9250030 1.3750000 9 180 1
29.2750000 -76.8750000 1.3250000 9 180 1
29.2750000 -76.8249970 1.3250000 9 180 1
29.2750000 -76.8750000 1.3750000 9 180 1
29.2750000 -76.8249970 1.3750000 9 180 1
29.3250010 -76.8750000 1.3750000 9 180 1
29.5750010 -76.8249970 1.2750000 9 180 1
29.5750010 -76.9250030 1.3250000 9 180 1
29.5750010 -76.9250030 1.3750000 9 180 1
29.5250000 -76.8249970 1.3250000 9 180 1
29.5250000 -76.8750000 1.3750000 9 180 1
29.5250000 -76.8249970 1.3750000 9 180 1
29.5750010 -77.1750030 1.4250000 9 179 1
29.5750010 -77.1750030 1.4750000 9 179 1
29.5750010 -77.0250020 1.4250000 9 180 1
29.5250000 -76.9250030 1.4250000 9 180 1
29.5250000 -76.9749980 1.4750000 9 180 1
29.4750000 -76.8249970 1.4250000 9 180 1
29.4750000 -76.8249970 1.4750000 9 180 1
29.5250000 -76.8249970 1.4250000 9 180 1
29.9750000 -77.5250020 0.8250000 9 179 0
29.9750000 -77.4749980 0.8250000 9 179 0
29.9750000 -77.4749980 0.8750000 9 179 0
29.9750000 -77.4250030 0.8750000 9 179 0
29.9750000 -77.5250020 0.9750000 9 179 0
29.9249990 -77.4250030 0.9250000 9 179 0
29.9750000 -77.4749980 0.9750000 9 179 0
29.9750000 -77.4250030 0.9750000 9 179 0
29.9750000 -77.3750000 0.8250000 9 179 0
29.9750000 -77.3249970 0.8250000 9 179 0
29.9750000 -77.3750000 0.8750000 9 179 0
29.8750000 -77.2750020 0.8250000 9 179 0
29.8750000 -77.2750020 0.8750000 9 179 0
29.9249990 -77.2750020 0.8250000 9 179 0
29.9249990 -77.2750020 0.8750000 9 179 0
29.9750000 -77.3750000 0.9250000 9 179 0
29.9249990 -77.3750000 0.9750000 9 179 0
29.9249990 -77.3249970 0.9750000 9 179 0
29.8750000 -77.2249980 0.9250000 9 179 0
29.8750000 -77.2249980 0.9750000 9 179 0
29.9249990 -77.2249980 0.9250000 9 179 0
29.9750000 -77.5749970 1.0250000 9 179 1
29.9750000 -77.5749970 1.0750000 9 179 1
29.9750000 -77.4749980 1.0250000 9 179 1
29.9750000 -77.4250030 1.0250000 9 179 1
29.9750000 -77.4749980 1.0750000 9 179 1
29.9750000 -77.4250030 1.0750000 9 179 1
29.9249990 -77.5250020 1.1250000 9 179 1
29.9750000 -77.5749970 1.1750000 9 179 1
29.9750000 -77.5250020 1.1750000 9 179 1
29.9249990 -77.4749980 1.1250000 9 179 1
29.9249990 -77.4250030 1.1250000 9 179 1
29.9249990 -77.4749980 1.1750000 9 179 1
29.9249990 -77.4250030 1.1750000 9 179 1
29.8750000 -77.3249970 1.0750000 9 179 1
29.9750000 -77.3750000 1.0250000 9 179 1
29.9249990 -77.3750000 1.0750000 9 179 1
29.9249990 -77.3249970 1.0750000 9 179 1
29.8750000 -77.2249980 1.0250000 9 179 1
29.8250010 -77.2249980 1.0750000 9 179 1
29.9249990 -77.2750020 1.0250000 9 179 1
29.9249990 -77.2750020 1.0750000 9 179 1
29.8750000 -77.3249970 1.1250000 9 179 1
29.8750000 -77.3249970 1.1750000 9 179 1
29.9249990 -77.3249970 1.1250000 9 179 1
29.9249990 -77.3249970 1.1750000 9 179 1
29.8250010 -77.2249980 1.1250000 9 179 1
29.8250010 -77.2750020 1.1750000 9 179 1
29.8250010 -77.2249980 1.1750000 9 179 1
29.9249990 -77.2750020 1.1250000 0 179 0
30.0750010 -77.5749970 0.8250000 0 179 0
30.0250000 -77.5749970 0.8750000 0 179 0
30.0250000 -77.5250020 0.8750000 0 179 0
30.0250000 -77.4749980 0.8750000 0 179 0
30.0750010 -77.5749970 0.9250000 0 179 0
30.0250000 -77.5749970 0.9750000 0 179 0
30.0250000 -77.5250020 0.9750000 0 179 0
30.0250000 -77.4749980 0.9750000 0 179 1
30.0250000 -77.5250020 1.0250000 0 179 1
30.0250000 -77.5250020 1.0750000 0 179 1
30.0250000 -77.5749970 1.1250000 0 179 1
29.7750000 -77.0749970 0.8250000 9 179 0
29.7750000 -77.0749970 0.8750000 9 179 0
29.7750000 -77.0749970 0.9250000 9 179 0
29.7750000 -77.0749970 0.9750000 9 179 0
29.8250010 -77.1750030 0.8250000 9 179 0
29.8250010 -77.1250000 0.8250000 9 179 0
29.8250010 -77.1750030 0.8750000 9 179 0
29.8250010 -77.1250000 0.8750000 9 179 0
29.8250010 -77.0749970 0.8250000 9 179 0
29.8250010 -77.0749970 0.8750000 9 179 0
29.8250010 -77.1750030 0.9250000 9 179 0
29.8250010 -77.1250000 0.9250000 9 179 0
29.8750000 -77.1750030 0.9750000 9 179 0
29.8750000 -77.1250000 0.9750000 9 179 0
29.8250010 -77.0250020 0.9250000 9 179 0
29.8250010 -77.0250020 0.9750000 9 180 0
29.7750000 -76.9749980 0.8250000 9 180 0
29.7750000 -76.9250030 0.8250000 9 180 0
29.7750000 -76.9749980 0.8750000 9 180 0
29.7750000 -76.9250030 0.8750000 9 180 0
29.6749990 -76.8249970 0.8750000 9 180 0
29.7250000 -76.8249970 0.8250000 9 180 0
29.7250000 -76.8249970 0.8750000 9 180 0
29.7750000 -76.9749980 0.9250000 9 180 0
29.7750000 -76.9250030 0.9250000 9 180 0
29.7750000 -76.9749980 0.9750000 9 180 0
29.7750000 -76.9250030 0.9750000 9 180 0
29.6749990 -76.8249970 0.9750000 9 180 0
29.7250000 -76.8249970 0.9250000 9 180 0
29.7250000 -76.8249970 0.9750000 9 179 1
29.7750000 -77.0250020 1.0250000 9 179 1
29.7750000 -77.0250020 1.0750000 9 179 1
29.7750000 -77.0749970 1.1250000 9 179 1
29.7750000 -77.0749970 1.1750000 9 179 1
29.7750000 -77.0250020 1.1750000 9 179 1
29.8750000 -77.1750030 1.0250000 9 179 1
29.8250010 -77.1750030 1.0750000 9 179 1
29.8250010 -77.1250000 1.0750000 9 179 1
29.8250010 -77.0749970 1.0250000 9 179 1
29.8250010 -77.0749970 1.0750000 9 179 1
29.8250010 -77.1750030 1.1250000 9 179 1
29.8250010 -77.1250000 1.1250000 9 179 1
29.8750000 -77.1750030 1.1750000 9 179 1
29.8250010 -77.0749970 1.1250000 9 179 1
29.8250010 -77.0749970 1.1750000 9 180 1
29.7750000 -76.9749980 1.0250000 9 180 1
29.7750000 -76.9250030 1.0250000 9 180 1
29.7750000 -76.9749980 1.0750000 9 180 1
29.7750000 -76.9250030 1.0750000 9 180 1
29.6749990 -76.8249970 1.0750000 9 180 1
29.7250000 -76.8249970 1.0250000 9 180 1
29.7250000 -76.8249970 1.0750000 9 180 1
29.7250000 -76.9749980 1.1250000 9 180 1
29.7250000 -76.9250030 1.1250000 9 180 1
29.7250000 -76.9749980 1.1750000 9 180 1
29.7250000 -76.9250030 1.1750000 9 180 1
29.6749990 -76.8249970 1.1250000 9 180 1
29.6749990 -76.8249970 1.1750000 9 180 1
29.7250000 -76.8249970 1.1250000 9 180 1
29.7250000 -76.8249970 1.1750000 9 179 1
29.9500010 -77.5500030 1.2500000 9 179 1
29.8750000 -77.4250030 1.2250000 9 179 1
29.8750000 -77.4250030 1.2750000 9 179 1
29.9750000 -77.4749980 1.2250000 9 179 1
29.9249990 -77.4749980 1.2750000 9 179 1
29.8750000 -77.5250020 1.3250000 9 179 1
29.8750000 -77.5250020 1.3750000 9 179 1
29.9750000 -77.5749970 1.3250000 9 179 1
29.9249990 -77.5749970 1.3750000 9 179 1
29.8750000 -77.4749980 1.3250000 9 179 1
29.8750000 -77.4250030 1.3250000 9 179 1
29.9249990 -77.4749980 1.3250000 9 179 1
29.6749990 -77.3750000 1.2750000 9 179 1
29.6749990 -77.3249970 1.2750000 9 179 1
29.7750000 -77.3750000 1.2750000 9 179 1
29.7750000 -77.3249970 1.2750000 9 179 1
29.7750000 -77.2249980 1.2750000 9 179 1
29.6749990 -77.3750000 1.3250000 9 179 1
29.6749990 -77.3249970 1.3250000 9 179 1
29.6749990 -77.3750000 1.3750000 9 179 1
29.7250000 -77.3249970 1.3250000 9 179 1
29.7250000 -77.3750000 1.3750000 9 179 1
29.7250000 -77.3249970 1.3750000 9 179 1
29.6749990 -77.2249980 1.3750000 9 179 1
29.7750000 -77.2750020 1.3250000 9 179 1
29.7750000 -77.2249980 1.3250000 9 179 1
29.7750000 -77.2750020 1.3750000 9 179 1
29.8750000 -77.3750000 1.2250000 9 179 1
29.8750000 -77.3249970 1.2250000 9 179 1
29.8750000 -77.3750000 1.2750000 9 179 1
29.8750000 -77.3249970 1.2750000 9 179 1
29.9249990 -77.3750000 1.2750000 9 179 1
29.8750000 -77.2750020 1.2250000 9 179 1
29.8750000 -77.2249980 1.2250000 9 179 1
29.8750000 -77.2750020 1.2750000 9 179 1
29.8250010 -77.3750000 1.3250000 9 179 1
29.8250010 -77.3249970 1.3250000 9 179 1
29.7750000 -77.4250030 1.4250000 9 179 1
29.8750000 -77.5749970 1.4250000 9 179 1
29.8750000 -77.5250020 1.4250000 9 179 1
29.7750000 -77.3750000 1.4250000 9 179 1
29.7750000 -77.3249970 1.4250000 9 179 1
29.6749990 -77.2750020 1.4250000 9 179 1
29.6749990 -77.2249980 1.4250000 9 179 1
29.6250000 -77.2249980 1.4750000 9 179 1
29.7750000 -77.1750030 1.2250000 9 179 1
29.7250000 -77.1750030 1.2750000 9 179 1
29.7250000 -77.1250000 1.2750000 9 179 1
29.6749990 -77.0250020 1.2250000 9 179 1
29.6749990 -77.0250020 1.2750000 9 179 1
29.7750000 -77.0749970 1.2250000 9 179 1
29.7750000 -77.0250020 1.2250000 9 179 1
29.7750000 -77.0749970 1.2750000 9 179 1
29.6749990 -77.1750030 1.3250000 9 179 1
29.6250000 -77.1750030 1.3750000 9 179 1
29.6250000 -77.1250000 1.3750000 9 179 1
29.7250000 -77.1750030 1.3250000 9 179 1
29.7250000 -77.1250000 1.3250000 9 179 1
29.6250000 -77.0749970 1.3250000 9 179 1
29.6250000 -77.0250020 1.3250000 9 179 1
29.6250000 -77.0749970 1.3750000 9 179 1
29.6250000 -77.0250020 1.3750000 9 179 1
29.8250010 -77.1750030 1.2250000 9 179 1
29.8250010 -77.1750030 1.2750000 9 180 1
29.6749990 -76.9250030 1.2250000 9 180 1
29.6749990 -76.9749980 1.2750000 9 180 1
29.6749990 -76.9250030 1.2750000 9 180 1
29.7250000 -76.9250030 1.2250000 9 180 1
29.6749990 -76.8750000 1.2250000 9 180 1
29.6749990 -76.8249970 1.2250000 9 180 1
29.6749990 -76.8750000 1.2750000 9 180 1
29.6250000 -76.9749980 1.3250000 9 180 1
29.6250000 -76.9250030 1.3250000 9 180 1
29.6250000 -76.8750000 1.3250000 9 180 1
29.6250000 -77.1750030 1.4250000 9 179 1
29.6250000 -77.1250000 1.4250000 9 179 1
32.3750000 -83.1750030 0.0250000 2 173 0
32.3750000 -83.1250000 0.0250000 2 173 0
32.3250010 -83.1250000 0.0750000 2 173 0
32.2750020 -83.0250020 0.0250000 2 173 0
32.3250010 -83.0749970 0.0250000 2 173 0
32.3250010 -83.0250020 0.0250000 2 173 0
32.3250010 -83.0749970 0.0750000 2 173 0
32.3250010 -83.0250020 0.0750000 2 173 0
32.3750000 -83.1750030 0.1250000 2 173 0
32.3750000 -83.1250000 0.1250000 2 173 0
32.3750000 -83.1750030 0.1750000 2 173 0
32.3750000 -83.1250000 0.1750000 2 173 0
32.2750020 -83.0250020 0.1250000 2 173 0
32.2750020 -83.0250020 0.1750000 2 173 0
32.3750000 -83.0749970 0.1250000 2 173 0
32.3250010 -83.0749970 0.1750000 2 173 0
32.3250010 -83.0250020 0.1750000 2 174 0
32.2750020 -82.9250030 0.0250000 2 174 0
32.2750020 -82.9250030 0.0750000 2 174 0
32.3250010 -82.9250030 0.0250000 2 174 0
32.3250010 -82.9250030 0.0750000 2 174 0
32.2750020 -82.8750000 0.0250000 2 174 0
32.2750020 -82.8249970 0.0250000 2 174 0
32.2750020 -82.8750000 0.0750000 2 174 0
32.2750020 -82.8249970 0.0750000 2 174 0
32.2750020 -82.9250030 0.1250000 2 174 0
32.2750020 -82.9250030 0.1750000 2 174 0
32.3250010 -82.9250030 0.1250000 2 174 0
32.3250010 -82.9250030 0.1750000 2 174 0
32.2750020 -82.8750000 0.1250000 2 174 0
32.2750020 -82.8249970 0.1250000 2 174 0
32.2750020 -82.8750000 0.1750000 2 174 0
32.2750020 -82.8249970 0.1750000 2 173 0
32.3750000 -83.1750030 0.2250000 2 173 0
32.3750000 -83.1250000 0.2250000 2 173 0
32.3750000 -83.1750030 0.2750000 2 173 0
32.3750000 -83.1250000 0.2750000 2 173 0
32.2750020 -83.0250020 0.2250000 2 173 0
32.2750020 -83.0250020 0.2750000 2 173 0
32.3750000 -83.0749970 0.2250000 2 173 0
32.3250010 -83.0749970 0.2750000 2 173 0
32.3250010 -83.0250020 0.2750000 2 173 0
32.3750000 -83.1750030 0.3250000 2 173 0
32.3750000 -83.1250000 0.3250000 2 173 0
32.3250010 -83.1250000 0.3750000 2 173 0
32.2750020 -83.0749970 0.3250000 2 173 0
32.2750020 -83.0749970 0.3750000 2 173 0
32.3250010 -83.0749970 0.3250000 2 173 0
32.3250010 -83.0250020 0.3250000 2 173 0
32.3750000 -83.0749970 0.3750000 2 173 0
32.2750020 -82.9749980 0.2250000 2 174 0
32.2750020 -82.9749980 0.2750000 2 174 0
32.3250010 -82.9749980 0.2250000 2 174 0
32.3250010 -82.9749980 0.2750000 2 174 0
32.2249980 -82.8750000 0.2250000 2 174 0
32.2249980 -82.8249970 0.2250000 2 174 0
32.2249980 -82.8750000 0.2750000 2 174 0
32.2249980 -82.8249970 0.2750000 2 174 0
32.2750020 -82.9749980 0.3250000 2 174 0
32.2750020 -82.9749980 0.3750000 2 174 0
32.3250010 -82.9749980 0.3250000 2 174 0
32.3250010 -82.9749980 0.3750000 2 174 0
32.2249980 -82.8750000 0.3250000 2 174 0
32.2249980 -82.8249970 0.3250000 2 174 0
32.2249980 -82.8750000 0.3750000 2 174 0
32.2249980 -82.8249970 0.3750000 2 174 0
32.3250010 -82.8750000 0.3250000 2 174 0
32.4249990 -83.1750030 0.0250000 2 173 0
32.4249990 -83.1750030 0.0750000 2 173 0
32.4249990 -83.1750030 0.1250000 2 173 0
32.4249990 -83.1750030 0.1750000 2 173 0
32.4249990 -83.1750030 0.2750000 2 173 0
32.4249990 -83.1750030 0.3750000 2 173 0
32.2249980 -82.7750020 0.0250000 2 174 0
32.2249980 -82.7249980 0.0250000 2 174 0
32.2249980 -82.7750020 0.0750000 2 174 0
32.2249980 -82.7249980 0.0750000 2 174 0
32.2249980 -82.6750030 0.0250000 2 174 0
32.2249980 -82.6250000 0.0250000 2 174 0
32.2750020 -82.6750030 0.0750000 2 174 0
32.2249980 -82.7750020 0.1250000 2 174 0
32.2249980 -82.7249980 0.1250000 2 174 0
32.2249980 -82.7750020 0.1750000 2 174 0
32.2249980 -82.7249980 0.1750000 2 174 0
32.2249980 -82.6750030 0.1250000 2 174 0
32.2249980 -82.6250000 0.1250000 2 174 0
32.2750020 -82.6750030 0.1750000 2 174 0
32.1749990 -82.5749970 0.0250000 2 174 0
32.1749990 -82.5749970 0.0750000 2 174 0
32.1749990 -82.4749980 0.0250000 2 174 0
32.1749990 -82.4749980 0.0750000 2 174 0
32.1749990 -82.5749970 0.1250000 2 174 0
32.1749990 -82.5749970 0.1750000 2 174 0
32.1749990 -82.4749980 0.1250000 2 174 0
32.1749990 -82.4749980 0.1750000 2 174 0
32.2249980 -82.5749970 0.0250000 2 174 0
32.2249980 -82.5749970 0.0750000 2 174 0
32.2249980 -82.4749980 0.0250000 2 174 0
32.2249980 -82.4749980 0.0750000 2 174 0
32.2249980 -82.5749970 0.1250000 2 174 0
32.2249980 -82.5749970 0.1750000 2 174 0
32.2249980 -82.4749980 0.1250000 2 174 0
32.2249980 -82.4749980 0.1750000 2 174 0
32.2249980 -82.7750020 0.2250000 2 174 0
32.2249980 -82.7249980 0.2250000 2 174 0
32.2249980 -82.7750020 0.2750000 2 174 0
32.2249980 -82.7249980 0.2750000 2 174 0
32.2249980 -82.6750030 0.2250000 2 174 0
32.2249980 -82.6250000 0.2250000 2 174 0
32.2750020 -82.6750030 0.2750000 2 174 0
32.2249980 -82.7750020 0.3250000 2 174 0
32.2249980 -82.7249980 0.3250000 2 174 0
32.2249980 -82.7750020 0.3750000 2 174 0
32.2249980 -82.7249980 0.3750000 2 174 0
32.2249980 -82.6750030 0.3250000 2 174 0
32.2249980 -82.6250000 0.3250000 2 174 0
32.2750020 -82.6750030 0.3750000 2 174 0
32.1749990 -82.5250020 0.2250000 2 174 0
32.1749990 -82.4749980 0.2250000 2 174 0
32.1749990 -82.4749980 0.2750000 2 174 0
32.1749990 -82.5749970 0.3250000 2 174 0
32.1749990 -82.5749970 0.3750000 2 174 0
32.1749990 -82.4749980 0.3250000 2 174 0
32.1749990 -82.4749980 0.3750000 2 174 0
32.2249980 -82.5749970 0.2250000 2 174 0
32.2249980 -82.5749970 0.2750000 2 174 0
32.2249980 -82.4749980 0.2250000 2 174 0
32.2249980 -82.4749980 0.2750000 2 174 0
32.2249980 -82.5749970 0.3250000 2 174 0
32.2249980 -82.5749970 0.3750000 2 174 0
32.2249980 -82.4749980 0.3250000 2 174 0
32.2249980 -82.4749980 0.3750000 2 174 0
32.3750000 -83.1750030 0.4250000 2 173 0
32.3750000 -83.1250000 0.4250000 2 173 0
32.3250010 -83.1250000 0.4750000 2 173 0
32.2750020 -83.0749970 0.4250000 2 173 0
32.2750020 -83.0749970 0.4750000 2 173 0
32.3250010 -83.0749970 0.4250000 2 173 0
32.3250010 -83.0250020 0.4250000 2 173 0
32.3750000 -83.0749970 0.4750000 2 173 0
32.3750000 -83.1750030 0.5250000 2 173 0
32.3750000 -83.1250000 0.5250000 2 173 0
32.3250010 -83.1250000 0.5750000 2 173 0
32.2750020 -83.0749970 0.5250000 2 173 0
32.2750020 -83.0250020 0.5750000 2 173 0
32.3750000 -83.0749970 0.5250000 2 173 0
32.3250010 -83.0749970 0.5750000 2 173 0
32.3250010 -83.0250020 0.5750000 2 173 0
32.2750020 -82.9749980 0.4250000 2 174 0
32.2750020 -82.9250030 0.4250000 2 174 0
32.2750020 -82.9250030 0.4750000 2 174 0
32.3250010 -82.9250030 0.4250000 2 174 0
32.3250010 -82.9250030 0.4750000 2 174 0
32.2750020 -82.8750000 0.4250000 2 174 0
32.2750020 -82.8249970 0.4250000 2 174 0
32.2249980 -82.8249970 0.4750000 2 174 0
32.3250010 -82.8750000 0.4250000 2 174 0
32.3250010 -82.8249970 0.4750000 2 174 0
32.2750020 -82.9250030 0.5250000 2 174 0
32.2750020 -82.9250030 0.5750000 2 174 0
32.3250010 -82.9250030 0.5250000 2 174 0
32.3750000 -82.9749980 0.5750000 2 174 0
32.2750020 -82.8750000 0.5250000 2 174 0
32.2750020 -82.8750000 0.5750000 2 174 0
32.3250010 -82.8750000 0.5250000 2 174 0
32.3250010 -82.8750000 0.5750000 2 174 0
32.3750000 -83.1250000 0.6250000 2 173 0
32.3250010 -83.0250020 0.6250000 2 173 0
32.3750000 -83.0749970 0.6750000 2 173 0
32.3750000 -83.1750030 0.7750000 2 173 0
32.3750000 -83.0749970 0.7250000 2 173 0
32.3750000 -83.0749970 0.7750000 2 173 0
32.2750020 -82.9749980 0.6250000 2 174 0
32.3250010 -82.9749980 0.6250000 2 174 0
32.3250010 -82.9250030 0.6250000 2 174 0
32.3250010 -82.9749980 0.6750000 2 174 0
32.3250010 -82.9250030 0.6750000 2 174 0
32.2750020 -82.8750000 0.6250000 2 174 0
32.2750020 -82.8750000 0.6750000 2 174 0
32.3250010 -82.8750000 0.6250000 2 174 0
32.3250010 -82.8750000 0.6750000 2 174 0
32.3499980 -82.9499970 0.7500000 2 174 0
32.2750020 -82.8249970 0.7250000 2 174 0
32.2750020 -82.8249970 0.7750000 2 174 0
32.3750000 -82.8750000 0.7250000 2 174 0
32.3250010 -82.8750000 0.7750000 2 174 0
32.3250010 -82.8249970 0.7750000 2 173 0
32.4249990 -83.1250000 0.4250000 2 173 0
32.4749980 -83.1750030 0.4750000 2 173 0
32.4249990 -83.1750030 0.5250000 2 173 0
32.4249990 -83.1250000 0.5250000 2 173 0
32.4749980 -83.1750030 0.5750000 2 173 0
32.4749980 -83.1250000 0.5750000 2 173 0
32.4249990 -83.1750030 0.6250000 2 173 0
32.4249990 -83.1250000 0.6250000 2 173 0
32.4249990 -83.1750030 0.6750000 2 173 0
32.4249990 -83.1250000 0.6750000 2 173 0
32.5250020 -83.1750030 0.6250000 2 173 0
32.4249990 -83.0749970 0.6250000 2 173 0
32.4249990 -83.0749970 0.6750000 2 173 0
32.4249990 -83.0250020 0.6750000 2 173 0
32.4749980 -83.1750030 0.7250000 2 173 0
32.4749980 -83.1250000 0.7250000 2 173 0
32.4749980 -83.1750030 0.7750000 2 173 0
32.4749980 -83.1250000 0.7750000 2 173 0
32.4249990 -83.0749970 0.7250000 2 173 0
32.4249990 -83.0250020 0.7250000 2 173 0
32.4249990 -83.0250020 0.7750000 2 174 0
32.4249990 -82.9749980 0.7750000 2 174 0
32.2750020 -82.7750020 0.4250000 2 174 0
32.2750020 -82.7249980 0.4250000 2 174 0
32.2750020 -82.7750020 0.4750000 2 174 0
32.2750020 -82.7249980 0.4750000 2 174 0
32.2750020 -82.6750030 0.4250000 2 174 0
32.2750020 -82.6250000 0.4250000 2 174 0
32.2750020 -82.6750030 0.4750000 2 174 0
32.2750020 -82.6250000 0.4750000 2 174 0
32.2750020 -82.7750020 0.5250000 2 174 0
32.2750020 -82.7249980 0.5250000 2 174 0
32.2249980 -82.7249980 0.5750000 2 174 0
32.3250010 -82.7750020 0.5250000 2 174 0
32.3250010 -82.7249980 0.5750000 2 174 0
32.2750020 -82.6750030 0.5250000 2 174 0
32.2750020 -82.6250000 0.5250000 2 174 0
32.2750020 -82.6750030 0.5750000 2 174 0
32.2750020 -82.6250000 0.5750000 2 174 0
32.1749990 -82.5250020 0.4250000 2 174 0
32.1749990 -82.5250020 0.4750000 2 174 0
32.1749990 -82.4250030 0.4250000 2 174 0
32.1749990 -82.4250030 0.4750000 2 174 0
32.1749990 -82.4749980 0.5250000 2 174 0
32.1749990 -82.4749980 0.5750000 2 174 0
32.2249980 -82.5749970 0.4250000 2 174 0
32.2249980 -82.5749970 0.4750000 2 174 0
32.2249980 -82.5250020 0.4750000 2 174 0
32.2249980 -82.4250030 0.4250000 2 174 0
32.2249980 -82.4250030 0.4750000 2 174 0
32.2750020 -82.5749970 0.5250000 2 174 0
32.2750020 -82.5250020 0.5250000 2 174 0
32.2750020 -82.5749970 0.5750000 2 174 0
32.2750020 -82.5250020 0.5750000 2 174 0
32.2249980 -82.4250030 0.5250000 2 174 0
32.2249980 -82.4250030 0.5750000 2 174 0
32.2750020 -82.7249980 0.6250000 2 174 0
32.2750020 -82.7249980 0.6750000 2 174 0
32.3250010 -82.7249980 0.6250000 2 174 0
32.3250010 -82.7249980 0.6750000 2 174 0
32.2750020 -82.6750030 0.6250000 2 174 0
32.2750020 -82.6250000 0.6250000 2 174 0
32.2750020 -82.6750030 0.6750000 2 174 0
32.2750020 -82.6250000 0.6750000 2 174 0
32.2249980 -82.7249980 0.7250000 2 174 0
32.2750020 -82.7750020 0.7750000 2 174 0
32.2750020 -82.7249980 0.7750000 2 174 0
32.3250010 -82.7249980 0.7250000 2 174 0
32.3250010 -82.7249980 0.7750000 2 174 0
32.2750020 -82.6750030 0.7250000 2 174 0
32.2750020 -82.6250000 0.7250000 2 174 0
32.2750020 -82.6750030 0.7750000 2 174 0
32.2750020 -82.6250000 0.7750000 2 174 0
32.1749990 -82.5250020 0.6750000 2 174 0
32.1749990 -82.4250030 0.6250000 2 174 0
32.1749990 -82.4250030 0.6750000 2 174 0
32.1749990 -82.5250020 0.7750000 2 174 0
32.1749990 -82.4250030 0.7250000 2 174 0
32.1749990 -82.4250030 0.7750000 2 174 0
32.2750020 -82.5749970 0.6250000 2 174 0
32.2750020 -82.5250020 0.6250000 2 174 0
32.2750020 -82.5749970 0.6750000 2 174 0
32.2750020 -82.5250020 0.6750000 2 174 0
32.2249980 -82.4250030 0.6250000 2 174 0
32.2249980 -82.4250030 0.6750000 2 174 0
32.2750020 -82.5749970 0.7250000 2 174 0
32.2249980 -82.5749970 0.7750000 2 174 0
32.2249980 -82.5250020 0.7750000 2 174 0
32.2249980 -82.4250030 0.7250000 2 174 0
32.2249980 -82.4250030 0.7750000 2 174 0
32.1749990 -82.3249970 0.0250000 2 174 0
32.1749990 -82.3249970 0.0750000 2 174 0
32.1749990 -82.2249980 0.0250000 2 174 0
32.1749990 -82.2249980 0.0750000 2 174 0
32.1749990 -82.3249970 0.1250000 2 174 0
32.1749990 -82.3249970 0.1750000 2 174 0
32.1749990 -82.2249980 0.1250000 2 174 0
32.1749990 -82.2249980 0.1750000 2 174 0
32.2249980 -82.3249970 0.0250000 2 174 0
32.2249980 -82.3249970 0.0750000 2 174 0
32.2249980 -82.2249980 0.0250000 2 174 0
32.2249980 -82.2249980 0.0750000 2 174 0
32.2249980 -82.3249970 0.1250000 2 174 0
32.2249980 -82.3249970 0.1750000 2 174 0
32.2249980 -82.2249980 0.1250000 2 174 0
32.2249980 -82.2249980 0.1750000 2 174 0
32.1749990 -82.1250000 0.0250000 2 174 0
32.1749990 -82.1750030 0.0750000 2 174 0
32.1749990 -82.1250000 0.0750000 2 174 0
32.1250000 -82.0250020 0.0250000 2 174 0
32.1250000 -82.0749970 0.0750000 2 174 0
32.1250000 -82.0250020 0.0750000 2 174 0
32.1250000 -82.1750030 0.1250000 2 174 0
32.1250000 -82.1250000 0.1250000 2 174 0
32.1250000 -82.1750030 0.1750000 2 174 0
32.1250000 -82.1250000 0.1750000 2 174 0
32.1250000 -82.0749970 0.1250000 2 174 0
32.1250000 -82.0250020 0.1250000 2 174 0
32.1250000 -82.0749970 0.1750000 2 174 0
32.1250000 -82.0250020 0.1750000 2 174 0
32.2249980 -82.1750030 0.0250000 2 174 0
32.2249980 -82.1750030 0.0750000 2 174 0
32.2249980 -82.0749970 0.0250000 2 174 0
32.2249980 -82.0749970 0.0750000 2 174 0
32.1749990 -82.3750000 0.2250000 2 174 0
32.1749990 -82.3750000 0.2750000 2 174 0
32.1749990 -82.2750020 0.2250000 2 174 0
32.1749990 -82.2750020 0.2750000 2 174 0
32.1749990 -82.2249980 0.2750000 2 174 0
32.1749990 -82.3249970 0.3250000 2 174 0
32.1749990 -82.3249970 0.3750000 2 174 0
32.1250000 -82.2249980 0.3250000 2 174 0
32.1749990 -82.2750020 0.3750000 2 174 0
32.1749990 -82.2249980 0.3750000 2 174 0
32.2249980 -82.3249970 0.2250000 2 174 0
32.2249980 -82.3249970 0.2750000 2 174 0
32.2249980 -82.2249980 0.2250000 2 174 0
32.2249980 -82.2249980 0.2750000 2 174 0
32.2249980 -82.3249970 0.3250000 2 174 0
32.2249980 -82.3249970 0.3750000 2 174 0
32.2249980 -82.2249980 0.3250000 2 174 0
32.1250000 -82.1750030 0.2250000 2 174 0
32.1250000 -82.1250000 0.2250000 2 174 0
32.1250000 -82.1750030 0.2750000 2 174 0
32.1250000 -82.1250000 0.2750000 2 174 0
32.0750010 -82.0250020 0.2250000 2 174 0
32.1250000 -82.0749970 0.2250000 2 174 0
32.1250000 -82.0250020 0.2250000 2 174 0
32.1250000 -82.0749970 0.2750000 2 174 0
32.1250000 -82.0250020 0.2750000 2 174 0
32.1749990 -82.1750030 0.3250000 2 174 0
32.1749990 -82.1250000 0.3250000 2 174 0
32.1749990 -82.1750030 0.3750000 2 174 0
32.1749990 -82.1250000 0.3750000 2 174 0
32.0750010 -82.0749970 0.3750000 2 174 0
32.1250000 -82.0749970 0.3250000 2 174 0
32.1250000 -82.0250020 0.3250000 2 174 0
32.1749990 -82.0749970 0.3750000 2 174 0
32.1250000 -81.9749980 0.0250000 2 175 0
32.1250000 -81.9250030 0.0250000 2 175 0
32.1250000 -81.9749980 0.0750000 2 175 0
32.1250000 -81.9250030 0.0750000 2 175 0
32.1250000 -81.8750000 0.0250000 2 175 0
32.1250000 -81.8249970 0.0250000 2 175 0
32.1250000 -81.8750000 0.0750000 2 175 0
32.1250000 -81.8249970 0.0750000 2 175 0
32.0750010 -81.9250030 0.1250000 2 175 0
32.0750010 -81.9250030 0.1750000 2 175 0
32.1749990 -81.9749980 0.1250000 2 175 0
32.1749990 -81.9250030 0.1250000 2 175 0
32.1749990 -81.9749980 0.1750000 2 175 0
32.0750010 -81.8750000 0.1250000 2 175 0
32.0750010 -81.8750000 0.1750000 2 175 0
32.1250000 -81.8750000 0.1250000 2 175 0
32.1250000 -81.8249970 0.1250000 2 175 0
32.1250000 -81.8249970 0.1750000 2 175 0
32.1250000 -81.7750020 0.0750000 2 175 0
32.1749990 -81.6750030 0.0250000 2 175 0
32.1749990 -81.6750030 0.0750000 2 175 0
32.1250000 -81.7750020 0.1250000 2 175 0
32.0750010 -81.9749980 0.2250000 2 175 0
32.0750010 -81.9749980 0.2750000 2 175 0
32.1250000 -81.9749980 0.2250000 2 175 0
32.1250000 -81.9749980 0.2750000 2 175 0
32.0750010 -81.8750000 0.2250000 2 175 0
32.0750010 -81.8750000 0.2750000 2 175 0
32.1250000 -81.8750000 0.2250000 2 175 0
32.0750010 -81.9749980 0.3250000 2 175 0
32.0750010 -81.9749980 0.3750000 2 175 0
32.0750010 -81.9250030 0.3750000 2 175 0
32.1250000 -81.9250030 0.3250000 2 175 0
32.1250000 -81.9250030 0.3750000 2 175 0
32.0750010 -81.8750000 0.3250000 2 175 0
32.0750010 -81.8249970 0.3250000 2 175 0
32.0750010 -81.8750000 0.3750000 2 175 0
32.0750010 -81.8249970 0.3750000 2 175 0
32.0750010 -81.7750020 0.2250000 2 175 0
32.0750010 -81.7750020 0.3250000 2 175 0
32.1749990 -82.3750000 0.4250000 2 174 0
32.1749990 -82.3750000 0.4750000 2 174 0
32.1749990 -82.2750020 0.4250000 2 174 0
32.1749990 -82.2249980 0.4250000 2 174 0
32.1749990 -82.2750020 0.4750000 2 174 0
32.1749990 -82.2249980 0.4750000 2 174 0
32.1749990 -82.3249970 0.5250000 2 174 0
32.1749990 -82.3249970 0.5750000 2 174 0
32.1749990 -82.2750020 0.5250000 2 174 0
32.1749990 -82.2249980 0.5250000 2 174 0
32.1749990 -82.2750020 0.5750000 2 174 0
32.1749990 -82.2249980 0.5750000 2 174 0
32.2249980 -82.3249970 0.4250000 2 174 0
32.2249980 -82.3249970 0.4750000 2 174 0
32.2249980 -82.2750020 0.4750000 2 174 0
32.2249980 -82.3249970 0.5250000 2 174 0
32.2249980 -82.3249970 0.5750000 2 174 0
32.2249980 -82.2249980 0.5250000 2 174 0
32.0750010 -82.1250000 0.4750000 2 174 0
32.1749990 -82.1750030 0.4250000 2 174 0
32.1749990 -82.1250000 0.4250000 2 174 0
32.1749990 -82.1750030 0.4750000 2 174 0
32.1749990 -82.1250000 0.4750000 2 174 0
32.0750010 -82.0250020 0.4250000 2 174 0
32.0750010 -82.0250020 0.4750000 2 174 0
32.1250000 -82.0250020 0.4250000 2 174 0
32.1749990 -82.0749970 0.4750000 2 174 0
32.1749990 -82.0250020 0.4750000 2 174 0
32.0750010 -82.0250020 0.5750000 2 174 0
32.1749990 -82.0749970 0.5250000 2 174 0
32.1749990 -82.0250020 0.5250000 2 174 0
32.1749990 -82.0749970 0.5750000 2 174 0
32.1749990 -82.0250020 0.5750000 2 174 0
32.1250000 -82.3249970 0.6250000 2 174 0
32.1749990 -82.3750000 0.6750000 2 174 0
32.1749990 -82.3249970 0.6750000 2 174 0
32.1749990 -82.2750020 0.6250000 2 174 0
32.1749990 -82.2249980 0.6250000 2 174 0
32.1749990 -82.2750020 0.6750000 2 174 0
32.1749990 -82.2249980 0.6750000 2 174 0
32.1250000 -82.3249970 0.7250000 2 174 0
32.1749990 -82.3750000 0.7750000 2 174 0
32.1749990 -82.3249970 0.7750000 2 174 0
32.1250000 -82.2750020 0.7250000 2 174 0
32.1250000 -82.2249980 0.7250000 2 174 0
32.1250000 -82.2750020 0.7750000 2 174 0
32.1250000 -82.2249980 0.7750000 2 174 0
32.2249980 -82.3750000 0.6250000 2 174 0
32.2249980 -82.3750000 0.6750000 2 174 0
32.2249980 -82.3750000 0.7750000 2 174 0
32.1250000 -82.1750030 0.6250000 2 174 0
32.1250000 -82.1250000 0.6250000 2 174 0
32.1250000 -82.1750030 0.6750000 2 174 0
32.1250000 -82.1250000 0.6750000 2 174 0
32.0750010 -82.0749970 0.6250000 2 174 0
32.0750010 -82.0749970 0.6750000 2 174 0
32.1250000 -82.0749970 0.6250000 2 174 0
32.1250000 -82.0250020 0.6250000 2 174 0
32.1250000 -82.0250020 0.6750000 2 174 0
32.0750010 -82.1250000 0.7250000 2 174 0
32.0750010 -82.1250000 0.7750000 2 174 0
32.1749990 -82.1750030 0.7250000 2 174 0
32.1250000 -82.1750030 0.7750000 2 174 0
32.0750010 -82.0749970 0.7250000 2 174 0
32.0750010 -82.0749970 0.7750000 2 174 0
32.1250000 -82.0749970 0.7250000 2 174 0
32.1250000 -82.0749970 0.7750000 2 174 0
32.0750010 -81.9749980 0.4250000 2 175 0
32.0750010 -81.9250030 0.4250000 2 175 0
32.0750010 -81.9250030 0.4750000 2 175 0
32.1250000 -81.9250030 0.4250000 2 175 0
32.1749990 -81.9749980 0.4750000 2 175 0
32.0250020 -81.8750000 0.4250000 2 175 0
32.0250020 -81.8249970 0.4250000 2 175 0
32.0750010 -81.8750000 0.4750000 2 175 0
32.1250000 -81.8750000 0.4250000 2 175 0
32.1250000 -81.8249970 0.4750000 2 175 0
32.0750010 -81.9250030 0.5250000 2 175 0
32.0750010 -81.9250030 0.5750000 2 175 0
32.1749990 -81.9749980 0.5250000 2 175 0
32.1749990 -81.9250030 0.5250000 2 175 0
32.1250000 -81.9250030 0.5750000 2 175 0
32.0750010 -81.8249970 0.5250000 2 175 0
32.0750010 -81.8249970 0.5750000 2 175 0
32.1250000 -81.8750000 0.5750000 2 175 0
32.0750010 -81.7750020 0.4750000 2 175 0
32.0750010 -81.7750020 0.5750000 2 175 0
32.0750010 -81.9749980 0.6250000 2 175 0
32.0750010 -81.9749980 0.6750000 2 175 0
32.1250000 -81.9749980 0.6250000 2 175 0
32.1250000 -81.9749980 0.6750000 2 175 0
32.0750010 -81.8750000 0.6250000 2 175 0
32.0750010 -81.8750000 0.6750000 2 175 0
32.1250000 -81.8750000 0.6250000 2 175 0
32.0750010 -81.9749980 0.7250000 2 175 0
32.0750010 -81.9749980 0.7750000 2 175 0
32.0750010 -81.9250030 0.7750000 2 175 0
32.1250000 -81.9250030 0.7250000 2 175 0
32.1250000 -81.9250030 0.7750000 2 175 0
32.0750010 -81.8750000 0.7250000 2 175 0
32.0250020 -81.8750000 0.7750000 2 175 0
32.0250020 -81.8249970 0.7750000 2 175 0
32.1250000 -81.8750000 0.7250000 2 175 0
32.0750010 -81.7750020 0.6750000 2 175 0
32.0750010 -81.7750020 0.7250000 2 175 0
32.1250000 -81.7750020 0.7250000 2 175 0
32.3750000 -83.1750030 0.8250000 2 173 0
32.3750000 -83.1750030 0.8750000 2 173 0
32.3750000 -83.1250000 0.8750000 2 173 0
32.3250010 -83.0250020 0.8250000 2 173 0
32.3250010 -83.0749970 0.8750000 2 173 0
32.3250010 -83.0250020 0.8750000 2 173 0
32.3750000 -83.1750030 0.9250000 2 173 0
32.3750000 -83.1250000 0.9250000 2 173 0
32.3250010 -83.1250000 0.9750000 2 173 0
32.3250010 -83.0749970 0.9250000 2 173 0
32.3250010 -83.0250020 0.9250000 2 173 0
32.3250010 -83.0749970 0.9750000 2 173 0
32.3250010 -83.0250020 0.9750000 2 173 0
32.2750020 -82.9250030 0.8750000 2 174 0
32.3750000 -82.9749980 0.8250000 2 174 0
32.3750000 -82.9250030 0.8250000 2 174 0
32.3750000 -82.9749980 0.8750000 2 174 0
32.3750000 -82.9250030 0.8750000 2 174 0
32.2750020 -82.8249970 0.8250000 2 174 0
32.2750020 -82.8249970 0.8750000 2 174 0
32.3750000 -82.8750000 0.8250000 2 174 0
32.3250010 -82.8750000 0.8750000 2 174 0
32.3250010 -82.8249970 0.8750000 2 174 0
32.2750020 -82.9250030 0.9250000 2 174 0
32.2750020 -82.9250030 0.9750000 2 174 0
32.3750000 -82.9749980 0.9250000 2 174 0
32.3750000 -82.9250030 0.9250000 2 174 0
32.3750000 -82.9749980 0.9750000 2 174 0
32.2750020 -82.8750000 0.9250000 2 174 0
32.2750020 -82.8750000 0.9750000 2 174 0
32.2750020 -82.8249970 0.9750000 2 174 0
32.3750000 -82.8750000 0.9250000 2 174 0
32.3250010 -82.8750000 0.9750000 2 174 0
32.3750000 -83.1750030 1.0250000 2 173 1
32.3750000 -83.1250000 1.0250000 2 173 1
32.3250010 -83.1250000 1.0750000 2 173 1
32.2750020 -83.0250020 1.0250000 2 173 1
32.3250010 -83.0749970 1.0250000 2 173 1
32.3250010 -83.0250020 1.0250000 2 173 1
32.3250010 -83.0749970 1.0750000 2 173 1
32.3250010 -83.0250020 1.0750000 2 173 1
32.3750000 -83.1750030 1.1250000 2 173 1
32.3750000 -83.1250000 1.1250000 2 173 1
32.3250010 -83.1250000 1.1750000 2 173 1
32.2750020 -83.0250020 1.1250000 2 173 1
32.3250010 -83.0749970 1.1250000 2 173 1
32.3250010 -83.0250020 1.1250000 2 173 1
32.3250010 -83.0749970 1.1750000 2 173 1
32.3250010 -83.0250020 1.1750000 2 174 1
32.2750020 -82.9250030 1.0250000 2 174 1
32.2750020 -82.9250030 1.0750000 2 174 1
32.3750000 -82.9749980 1.0250000 2 174 1
32.3250010 -82.9749980 1.0750000 2 174 1
32.2750020 -82.8750000 1.0250000 2 174 1
32.2750020 -82.8249970 1.0250000 2 174 1
32.2249980 -82.8249970 1.0750000 2 174 1
32.3250010 -82.8750000 1.0250000 2 174 1
32.3250010 -82.8750000 1.0750000 2 174 1
32.2750020 -82.9250030 1.1250000 2 174 1
32.2249980 -82.9250030 1.1750000 2 174 1
32.3250010 -82.9749980 1.1250000 2 174 1
32.2249980 -82.8750000 1.1250000 2 174 1
32.2249980 -82.8249970 1.1250000 2 174 1
32.2249980 -82.8750000 1.1750000 2 174 1
32.2249980 -82.8249970 1.1750000 2 174 1
32.4249990 -83.1750030 0.8250000 2 173 0
32.4249990 -83.1250000 0.8250000 2 173 0
32.4249990 -83.1750030 0.8750000 2 173 0
32.4249990 -83.1250000 0.8750000 2 173 0
32.4249990 -83.0250020 0.8250000 2 173 0
32.4249990 -83.0250020 0.8750000 2 173 0
32.4249990 -83.1250000 0.9250000 2 173 0
32.4249990 -83.1250000 0.9750000 2 173 0
32.4249990 -82.9749980 0.8250000 2 174 0
32.4249990 -83.1750030 1.0250000 2 173 1
32.4249990 -83.1750030 1.0750000 2 173 1
32.4249990 -83.1750030 1.1250000 2 173 1
32.4249990 -83.1750030 1.1750000 2 173 1
32.2750020 -82.7750020 0.8250000 2 174 0
32.2750020 -82.7249980 0.8250000 2 174 0
32.2750020 -82.7750020 0.8750000 2 174 0
32.2750020 -82.7249980 0.8750000 2 174 0
32.3250010 -82.7249980 0.8250000 2 174 0
32.3250010 -82.7249980 0.8750000 2 174 0
32.2750020 -82.6750030 0.8250000 2 174 0
32.2750020 -82.6250000 0.8250000 2 174 0
32.2750020 -82.6750030 0.8750000 2 174 0
32.2750020 -82.6250000 0.8750000 2 174 0
32.2750020 -82.7750020 0.9250000 2 174 0
32.2750020 -82.7249980 0.9250000 2 174 0
32.2750020 -82.7750020 0.9750000 2 174 0
32.2750020 -82.7249980 0.9750000 2 174 0
32.3250010 -82.7750020 0.9750000 2 174 0
32.2750020 -82.6750030 0.9250000 2 174 0
32.2249980 -82.6750030 0.9750000 2 174 0
32.2249980 -82.6250000 0.9750000 2 174 0
32.1749990 -82.5250020 0.8750000 2 174 0
32.1749990 -82.4250030 0.8250000 2 174 0
32.1749990 -82.4250030 0.8750000 2 174 0
32.1749990 -82.5250020 0.9750000 2 174 0
32.1749990 -82.4250030 0.9250000 2 174 0
32.1749990 -82.4250030 0.9750000 2 174 0
32.2750020 -82.5749970 0.8250000 2 174 0
32.2249980 -82.5749970 0.8750000 2 174 0
32.2249980 -82.5250020 0.8750000 2 174 0
32.2249980 -82.4749980 0.8250000 2 174 0
32.2249980 -82.4749980 0.8750000 2 174 0
32.2249980 -82.5749970 0.9250000 2 174 0
32.2249980 -82.5749970 0.9750000 2 174 0
32.2249980 -82.4749980 0.9250000 2 174 0
32.2249980 -82.4749980 0.9750000 2 174 0
32.1749990 -82.6750030 1.1750000 2 174 1
32.2249980 -82.7750020 1.0250000 2 174 1
32.2249980 -82.7249980 1.0250000 2 174 1
32.2249980 -82.7750020 1.0750000 2 174 1
32.2249980 -82.7249980 1.0750000 2 174 1
