ply
format ascii 1.0
element face 0
property list uchar int vertex_indices
element vertex 668
property float x
property float y
property float z
property float nx
property float ny
property float nz
property uchar red
property uchar green
property uchar blue
end_header
6.9375000 -10.1625000 0.0375000 -0.0355379 -0.0250872 -0.9990534 0 246 0
2.8125000 0.7125000 -0.0375000 -0.0479287 -0.1983363 -0.9789615 0 0 0
6.9375000 -10.0875000 0.0375000 0.0355379 0.0250872 -0.9990534 0 246 0
7.0875000 -10.0875000 0.0375000 0.1154861 0.0000000 -0.9933091 0 246 0
-8.2125000 0.5625000 -0.0375000 0.0438193 0.0171168 -0.9988928 8 0 0
11.1375000 -9.1125000 -0.0375000 -0.0355379 -0.0250872 -0.9990534 1 247 0
11.3625000 -4.3875000 0.1875000 0.9918314 -0.0000000 -0.1275558 1 252 0
6.9375000 -10.0125000 0.0375000 0.0486877 -0.0284473 -0.9984089 0 246 0
6.2625000 1.4625000 1.1625000 -0.0000000 1.0000000 0.0000000 0 1 0
4.5375000 -2.8125000 1.7625000 0.0000000 -1.0000000 0.0000000 0 254 1
6.9375000 -9.9375000 0.0375000 0.0231811 0.0416474 -0.9988634 0 247 0
7.0875000 -9.9375000 0.0375000 0.1112964 0.0361688 -0.9931289 0 247 0
9.1125000 1.4625000 1.7625000 0.0000000 1.0000000 0.0000000 0 1 1
11.0625000 -10.7625000 -0.0375000 -0.0355379 0.0250872 -0.9990534 0 246 0
11.2125000 -12.1875000 0.2625000 0.1692784 -0.9849857 -0.0338822 1 244 0
6.6375000 -9.8625000 0.0375000 -0.0269905 -0.0614343 -0.9977461 0 247 0
6.7875000 -9.8625000 0.0375000 0.0688305 -0.1051023 -0.9920765 0 247 0
-2.3625000 1.4625000 1.5375000 0.0000000 1.0000000 -0.0000000 2 1 1
10.8375000 -7.7625000 -0.0375000 0.0000000 -0.0000000 -1.0000000 0 249 0
6.8625000 -9.7875000 0.0375000 0.0647483 -0.0099412 -0.9978521 0 247 0
7.1625000 -9.8625000 0.0375000 0.0127989 0.0366431 -0.9992465 0 247 0
11.1375000 -3.7875000 -0.0375000 0.0568139 0.0034481 -0.9983788 1 253 0
7.1625000 -9.6375000 0.0375000 0.0443912 -0.0820035 -0.9956429 0 245 1
8.5875000 -8.8875000 0.5625000 -0.9776837 0.0405609 -0.2061298 0 248 0
10.8375000 -0.9375000 -0.0375000 -0.0159360 0.0000000 -0.9998730 0 0 0
11.3625000 -7.0875000 1.2375000 1.0000000 0.0000000 0.0000000 1 249 1
5.5875000 -11.8875000 1.2375000 -1.0000000 0.0000000 -0.0000000 0 245 1
5.5875000 -11.7375000 1.3125000 -1.0000000 0.0000000 0.0000000 0 245 1
6.8625000 1.3875000 -0.0375000 -0.0000000 0.3723964 -0.9280738 0 1 0
5.5875000 -11.8875000 1.4625000 -1.0000000 -0.0000000 -0.0000000 0 245 1
5.5875000 -11.7375000 1.3875000 -1.0000000 0.0000000 0.0000000 0 245 1
5.5875000 -11.5875000 1.3125000 -1.0000000 0.0000000 0.0000000 0 245 1
8.9625000 1.4625000 1.2375000 -0.0000000 1.0000000 -0.0000000 0 1 1
-9.5625000 -1.8375000 -0.0375000 0.0000000 0.0000000 -1.0000000 9 255 0
9.2625000 -9.1875000 -0.0375000 0.0775131 -0.0158739 -0.9968650 0 247 0
5.5875000 -11.4375000 1.3125000 -1.0000000 0.0000000 0.0000000 0 245 1
5.5875000 -11.4375000 1.3875000 -1.0000000 0.0000000 0.0000000 0 245 1
5.5875000 -11.4375000 1.4625000 -1.0000000 0.0000000 0.0000000 0 245 1
6.1875000 -10.5375000 -0.0375000 0.0042944 0.0675222 -0.9977085 0 246 0
5.5875000 -11.7375000 1.6125000 -1.0000000 0.0000000 -0.0000000 0 245 1
5.5875000 -11.8875000 1.6875000 -1.0000000 0.0000000 -0.0000000 0 245 1
8.7375000 -7.3875000 1.1625000 -1.0000000 -0.0000000 -0.0000000 0 249 1
-1.1625000 -0.5625000 -0.0375000 0.0000000 -0.0000000 -1.0000000 1 0 0
5.5875000 -11.5875000 1.6125000 -1.0000000 0.0000000 -0.0000000 0 245 1
5.5875000 -11.5875000 1.6875000 -1.0000000 0.0000000 -0.0000000 0 245 1
-11.8125000 -2.0625000 0.1125000 -0.9834765 0.0746489 -0.1649289 11 255 0
9.9375000 -8.8125000 0.0375000 -0.0355379 -0.0250872 -0.9990534 0 248 0
5.5875000 -11.5875000 1.7625000 -1.0000000 0.0000000 -0.0000000 0 245 1
5.5875000 -11.4375000 1.6875000 -1.0000000 -0.0000000 0.0000000 0 245 1
5.5875000 -11.2875000 1.2375000 -1.0000000 0.0000000 -0.0000000 0 245 1
5.5875000 -10.2375000 2.2875000 -1.0000000 -0.0000000 0.0000000 0 246 2
7.7625000 0.2625000 2.3625000 0.9745174 -0.2240365 -0.0111099 0 0 1
-3.5625000 -2.8125000 1.4625000 -0.0000000 -1.0000000 -0.0000000 3 254 1
10.8375000 -8.4375000 -0.0375000 0.0264573 -0.0434698 -0.9987044 0 248 0
5.5875000 -11.2875000 1.3125000 -1.0000000 0.0000000 0.0000000 0 245 1
8.2875000 -1.0125000 1.6125000 0.0000000 1.0000000 0.0000000 0 255 1
8.7375000 -7.6125000 0.1875000 -0.9848914 -0.1021868 -0.1398096 0 249 0
11.3625000 -5.3625000 1.5375000 1.0000000 0.0000000 0.0000000 1 251 1
5.5875000 -11.1375000 1.3125000 -1.0000000 0.0000000 0.0000000 0 245 1
5.5875000 -11.2875000 1.4625000 -1.0000000 0.0000000 0.0000000 0 245 1
6.8625000 1.4625000 0.9375000 0.0000000 1.0000000 0.0000000 0 1 1
-5.8875000 1.4625000 0.4875000 0.0000000 1.0000000 -0.0000000 5 1 0
5.5875000 -7.3125000 1.0125000 -1.0000000 -0.0000000 0.0000000 0 249 1
11.3625000 -2.5875000 1.0875000 1.0000000 -0.0000000 0.0000000 1 254 1
5.5875000 -11.1375000 1.3875000 -1.0000000 0.0000000 0.0000000 0 245 1
10.5375000 -9.4125000 -0.0375000 0.0355379 0.0250872 -0.9990534 0 247 0
5.5875000 -10.8375000 1.2375000 -1.0000000 0.0000000 -0.0000000 0 246 1
-5.9625000 -1.4625000 -0.0375000 0.1310814 0.0045971 -0.9913609 5 255 0
5.5875000 -10.9875000 1.4625000 -1.0000000 -0.0000000 0.0000000 0 246 1
11.3625000 -3.3375000 0.4125000 1.0000000 -0.0000000 -0.0000000 1 253 0
6.0375000 -7.0875000 0.0375000 0.0839197 0.0051736 -0.9964591 0 249 0
7.3875000 -12.1875000 0.3375000 0.0000000 -1.0000000 0.0000000 0 244 0
5.5875000 -11.2875000 1.5375000 -1.0000000 0.0000000 -0.0000000 0 245 1
-8.8125000 -2.5875000 0.7125000 -0.1228054 -0.9869466 -0.1041889 8 254 0
5.5875000 -11.2875000 1.6125000 -1.0000000 0.0000000 -0.0000000 0 245 1
10.0875000 -3.7125000 -0.0375000 -0.0000000 0.0000000 -1.0000000 0 253 0
8.5875000 -11.1375000 1.9875000 -0.9977468 0.0646382 0.0179760 0 245 1
5.5875000 -11.1375000 1.5375000 -1.0000000 0.0000000 -0.0000000 0 245 1
2.4375000 1.4625000 1.9125000 -0.0000000 1.0000000 -0.0000000 0 1 1
3.1125000 -0.0375000 -0.0375000 -0.0000000 0.0000000 -1.0000000 0 0 0
5.5875000 -11.2875000 1.6875000 -1.0000000 0.0000000 0.0000000 0 245 1
5.5875000 -7.6125000 1.2375000 -1.0000000 -0.0000000 -0.0000000 0 249 1
5.5875000 -11.2875000 1.7625000 -1.0000000 0.0000000 0.0000000 0 245 1
5.5875000 -10.8375000 1.6125000 -1.0000000 -0.0000000 -0.0000000 0 245 1
11.3625000 -11.2875000 2.5125000 1.0000000 0.0000000 -0.0000000 1 245 2
10.7625000 0.4875000 -0.0375000 -0.0000000 -0.0000000 -1.0000000 0 0 0
5.5875000 -10.9875000 1.6875000 -1.0000000 -0.0000000 0.0000000 0 245 1
-7.9125000 1.4625000 0.0375000 0.0000000 0.9280738 -0.3723964 7 1 0
6.4125000 -3.9375000 -0.0375000 -0.0000000 0.0000000 -1.0000000 0 252 0
5.5875000 -10.9875000 1.7625000 -1.0000000 -0.0000000 0.0000000 0 246 1
5.5875000 -10.8375000 1.6875000 -1.0000000 0.0000000 -0.0000000 0 246 1
5.5875000 -11.7375000 1.9125000 -1.0000000 -0.0000000 -0.0000000 0 245 1
1.2375000 -2.8125000 1.7625000 -0.0000000 -1.0000000 -0.0000000 0 254 1
0.7125000 -2.3625000 -0.0375000 0.0000000 -0.0000000 -1.0000000 0 254 0
5.5875000 -11.8875000 1.9875000 -1.0000000 0.0000000 0.0000000 0 245 2
5.5875000 -11.7375000 2.0625000 -1.0000000 0.0000000 -0.0000000 0 245 1
8.8125000 -4.0125000 -0.0375000 -0.0159291 0.0472754 -0.9987549 0 253 0
5.5875000 -11.5875000 1.8375000 -1.0000000 0.0000000 -0.0000000 0 245 1
5.5875000 -11.5875000 2.0625000 -1.0000000 0.0000000 -0.0000000 0 245 1
5.5875000 -11.8875000 2.1375000 -1.0000000 0.0000000 0.0000000 0 245 2
10.5375000 -5.3625000 -0.0375000 -0.0000000 -0.0000000 -1.0000000 0 251 0
5.5875000 -11.7375000 2.2125000 -1.0000000 0.0000000 -0.0000000 0 245 2
5.5875000 -11.8875000 2.2875000 -1.0000000 -0.0000000 0.0000000 0 245 2
7.8375000 -6.7875000 0.0375000 -0.0000000 0.0315619 -0.9995018 0 250 0
5.5875000 -11.8875000 2.3625000 -1.0000000 0.0000000 -0.0000000 0 245 2
-3.1125000 -1.6875000 -0.0375000 0.0000000 0.0000000 -1.0000000 3 255 0
11.3625000 -1.6125000 1.2375000 1.0000000 -0.0000000 0.0000000 1 255 1
7.0125000 -1.9875000 -0.0375000 -0.0000000 -0.0000000 -1.0000000 0 254 0
5.5875000 -11.7375000 2.2875000 -1.0000000 -0.0000000 0.0000000 0 245 2
10.4625000 -11.0625000 -0.0375000 0.0425199 -0.0000000 -0.9990956 0 246 0
-8.2875000 -0.3375000 0.0375000 0.1682779 0.1406888 -0.9756481 8 0 0
5.5875000 -11.7375000 2.3625000 -1.0000000 -0.0000000 0.0000000 0 245 2
8.2125000 0.1125000 0.6375000 -0.2372705 -0.9714436 0.0000000 0 0 0
5.5875000 -11.5875000 2.2125000 -1.0000000 0.0000000 -0.0000000 0 245 2
3.7125000 -2.8125000 0.0375000 -0.0000000 -0.9280738 -0.3723964 0 254 0
5.5875000 -11.4375000 2.1375000 -1.0000000 0.0000000 -0.0000000 0 245 2
9.3375000 -7.3125000 -0.0375000 -0.0000000 -0.0000000 -1.0000000 0 249 0
5.5875000 -11.4375000 2.2125000 -1.0000000 -0.0000000 -0.0000000 0 245 2
5.5875000 -11.4375000 2.2875000 -1.0000000 0.0000000 0.0000000 0 245 2
5.5875000 -11.4375000 2.3625000 -1.0000000 -0.0000000 0.0000000 0 245 1
5.5875000 -11.2875000 1.9125000 -1.0000000 0.0000000 -0.0000000 0 245 1
5.5875000 -11.1375000 1.9125000 -1.0000000 0.0000000 -0.0000000 0 245 1
8.7375000 -7.9875000 1.7625000 -1.0000000 0.0000000 0.0000000 0 249 1
-7.6125000 1.4625000 0.3375000 -0.0000000 1.0000000 0.0000000 7 1 0
5.5875000 -11.2875000 1.9875000 -1.0000000 0.0000000 -0.0000000 0 245 2
6.5625000 -2.5875000 -0.0375000 0.0000000 0.0000000 -1.0000000 0 254 0
8.5875000 -7.6125000 0.2625000 -0.9848914 0.1021868 0.1398096 0 249 0
5.5875000 -10.9875000 1.8375000 -1.0000000 -0.0000000 0.0000000 0 245 1
7.4625000 1.4625000 1.6125000 0.0000000 1.0000000 -0.0000000 0 1 1
5.5875000 -10.8375000 1.8375000 -1.0000000 0.0000000 -0.0000000 0 246 1
11.3625000 -7.3875000 0.0375000 0.8604855 0.0306379 -0.5085528 1 249 0
11.3625000 -3.6375000 1.6125000 1.0000000 -0.0000000 0.0000000 1 253 1
5.5875000 -3.1125000 2.2125000 -1.0000000 0.0000000 -0.0000000 0 253 2
5.5875000 -11.2875000 2.1375000 -1.0000000 0.0000000 -0.0000000 0 245 2
5.5875000 -11.2875000 2.2875000 -1.0000000 0.0000000 0.0000000 0 245 2
5.5875000 -11.2875000 2.3625000 -1.0000000 0.0000000 0.0000000 0 245 2
5.5875000 -10.9875000 2.2125000 -1.0000000 -0.0000000 0.0000000 0 246 2
5.5875000 -10.8375000 2.2125000 -1.0000000 0.0000000 -0.0000000 0 245 2
5.5875000 -10.9875000 2.2875000 -1.0000000 -0.0000000 0.0000000 0 245 2
5.5875000 -10.9875000 2.3625000 -1.0000000 -0.0000000 0.0000000 0 246 2
8.2875000 -1.0125000 1.3875000 -0.0000000 1.0000000 -0.0000000 0 255 1
-2.2125000 1.4625000 2.2875000 0.0000000 1.0000000 -0.0000000 2 1 2
5.5875000 -10.8375000 2.2875000 -1.0000000 -0.0000000 0.0000000 0 246 2
5.5875000 -2.9625000 1.4625000 -0.9852709 -0.1710008 -0.0000000 0 254 1
5.5875000 -10.8375000 2.3625000 -1.0000000 -0.0000000 0.0000000 0 246 1
10.2375000 -5.9625000 -0.0375000 0.0000000 0.0000000 -1.0000000 0 251 0
11.3625000 -6.9375000 1.9125000 1.0000000 -0.0000000 0.0000000 1 249 1
6.1875000 -9.6375000 0.0375000 0.1205586 -0.0713854 -0.9901362 0 247 0
5.5875000 -10.6875000 1.2375000 -1.0000000 0.0000000 -0.0000000 0 246 1
5.5875000 -10.6875000 1.3125000 -1.0000000 0.0000000 0.0000000 0 246 1
5.5875000 -10.5375000 1.3125000 -1.0000000 0.0000000 -0.0000000 0 246 1
11.3625000 -11.5875000 0.1875000 0.9969451 -0.0000000 -0.0781056 1 245 0
-9.1125000 1.4625000 0.7875000 -0.0000000 1.0000000 -0.0000000 9 1 0
6.6375000 -9.0375000 0.0375000 0.0727046 0.1006592 -0.9922609 0 247 0
5.5875000 -10.6875000 1.3875000 -1.0000000 0.0000000 0.0000000 0 246 1
5.5875000 -10.6875000 1.4625000 -1.0000000 0.0000000 0.0000000 0 246 1
2.0625000 1.4625000 0.7875000 -0.0000000 1.0000000 -0.0000000 0 1 0
5.5875000 -10.3875000 1.2375000 -1.0000000 0.0000000 -0.0000000 0 246 1
-2.3625000 0.8625000 0.0375000 -0.0627524 -0.1281017 -0.9897738 2 0 0
5.5875000 -10.3875000 1.3875000 -1.0000000 0.0000000 0.0000000 0 246 1
5.5875000 -10.3875000 1.4625000 -1.0000000 0.0000000 0.0000000 0 246 1
2.6625000 0.7125000 0.0375000 -0.0384770 -0.0833218 -0.9957796 0 0 0
11.3625000 -3.7875000 0.2625000 1.0000000 0.0000000 0.0000000 1 253 0
2.5125000 -2.7375000 -0.0375000 0.0428134 -0.4388431 -0.8975432 0 254 0
5.5875000 -10.2375000 1.3875000 -1.0000000 -0.0000000 0.0000000 0 246 1
-4.7625000 -2.8125000 1.8375000 -0.0000000 -1.0000000 -0.0000000 4 254 1
1.9875000 -2.8125000 0.6375000 0.0000000 -1.0000000 0.0000000 0 254 0
5.5875000 -10.6875000 1.6875000 -1.0000000 0.0000000 0.0000000 0 246 1
5.8875000 -12.1875000 1.4625000 0.0000000 -1.0000000 0.0000000 0 244 1
11.3625000 -7.8375000 2.2125000 1.0000000 -0.0000000 0.0000000 1 248 2
5.5875000 -10.5375000 1.6875000 -1.0000000 0.0000000 0.0000000 0 246 1
5.5875000 -10.3875000 1.6125000 -1.0000000 0.0000000 -0.0000000 0 246 1
3.3375000 1.4625000 0.7125000 -0.0000000 1.0000000 -0.0000000 0 1 0
5.5875000 -8.6625000 1.6125000 -1.0000000 0.0000000 -0.0000000 0 248 1
5.5875000 -10.2375000 1.5375000 -1.0000000 -0.0000000 -0.0000000 0 246 1
0.7125000 -0.8625000 -0.0375000 0.0000000 0.0000000 -1.0000000 0 0 0
5.5875000 -10.2375000 1.6125000 -1.0000000 -0.0000000 -0.0000000 0 246 1
5.5875000 -10.3875000 1.7625000 -1.0000000 0.0000000 0.0000000 0 246 1
5.5875000 -10.2375000 1.6875000 -1.0000000 -0.0000000 0.0000000 0 246 1
1.1625000 -2.5125000 -0.0375000 -0.0000000 0.0000000 -1.0000000 0 254 0
5.5875000 -10.2375000 1.7625000 -1.0000000 -0.0000000 0.0000000 0 246 1
9.2625000 -12.1875000 0.8625000 -0.0000000 -1.0000000 -0.0000000 0 244 0
3.9375000 -2.8125000 2.4375000 0.0000000 -1.0000000 0.0000000 0 254 2
-4.6125000 -2.8125000 2.2875000 -0.0000000 -1.0000000 -0.0000000 4 254 2
5.5875000 -10.0875000 1.2375000 -1.0000000 0.0000000 -0.0000000 0 246 1
11.3625000 -8.8875000 0.6375000 1.0000000 0.0000000 0.0000000 1 248 0
5.5875000 -10.0875000 1.3125000 -1.0000000 0.0000000 0.0000000 0 246 1
-3.3375000 0.1125000 -0.0375000 0.0930181 0.0975216 -0.9908770 3 0 0
1.0875000 -2.8125000 1.1625000 -0.0000000 -1.0000000 -0.0000000 0 254 1
5.5875000 -9.9375000 1.2375000 -1.0000000 0.0000000 -0.0000000 0 246 1
5.5875000 -9.9375000 1.3125000 -1.0000000 -0.0000000 -0.0000000 0 246 1
0.2625000 1.4625000 0.9375000 -0.0000000 1.0000000 -0.0000000 0 1 1
-11.8125000 -5.0625000 2.1375000 -1.0000000 0.0000000 0.0000000 11 252 2
5.5875000 -9.7875000 1.3125000 -1.0000000 0.0000000 0.0000000 0 247 1
5.5875000 -9.6375000 1.3125000 -1.0000000 0.0000000 0.0000000 0 247 1
-9.4125000 -1.4625000 -0.0375000 0.0000000 -0.0000000 -1.0000000 9 255 0
-3.1125000 -2.8125000 2.2125000 -0.0000000 -1.0000000 -0.0000000 3 254 2
5.5875000 -9.7875000 1.3875000 -1.0000000 0.0000000 0.0000000 0 247 1
0.3375000 -2.8125000 1.5375000 0.0000000 -1.0000000 0.0000000 0 254 1
-2.0625000 -2.8125000 1.4625000 -0.0000000 -1.0000000 -0.0000000 1 254 1
5.5875000 -9.6375000 1.3875000 -1.0000000 0.0000000 0.0000000 0 247 1
2.1375000 -2.8125000 0.1125000 -0.0000000 -0.9712930 -0.2378864 0 254 0
-9.7125000 -1.0875000 -0.0375000 0.0000000 0.0000000 -1.0000000 9 255 0
-3.8625000 -0.2625000 -0.0375000 0.0243626 0.0308882 -0.9992259 3 0 0
5.5875000 -6.5625000 1.1625000 -1.0000000 0.0000000 0.0000000 0 250 1
6.5625000 -6.1125000 0.0375000 -0.0382562 -0.0496827 -0.9980321 0 250 0
5.5875000 -9.6375000 1.4625000 -1.0000000 0.0000000 0.0000000 0 246 1
-9.3375000 0.0375000 0.2625000 -0.3902548 -0.0401745 -0.9198300 9 0 0
5.5875000 -10.0875000 1.5375000 -1.0000000 0.0000000 -0.0000000 0 246 1
8.5875000 -11.9625000 0.8625000 -0.8642688 -0.5030303 0.0000000 0 245 0
5.5875000 -10.0875000 1.6125000 -1.0000000 0.0000000 -0.0000000 0 246 1
3.2625000 1.4625000 2.1375000 0.0000000 1.0000000 -0.0000000 0 1 2
6.7125000 -11.3625000 0.0375000 0.0283702 -0.0207962 -0.9993811 0 245 0
5.5875000 -9.9375000 1.6125000 -1.0000000 0.0000000 -0.0000000 0 246 1
5.5875000 -10.0875000 1.7625000 -1.0000000 0.0000000 -0.0000000 0 246 1
5.5875000 -7.9125000 0.5625000 -1.0000000 0.0000000 0.0000000 0 249 0
-1.3875000 1.4625000 -0.0375000 0.0465388 0.6888874 -0.7233728 1 1 0
5.5875000 -9.9375000 1.6875000 -1.0000000 0.0000000 -0.0000000 0 246 1
8.7375000 -10.7625000 0.6375000 -0.9846209 -0.1438931 -0.0990775 0 246 0
11.3625000 -7.2375000 1.9125000 1.0000000 0.0000000 0.0000000 1 249 1
9.1125000 -0.0375000 0.4125000 -0.8663845 -0.4993775 0.0000000 0 0 0
7.6125000 -8.2875000 0.0375000 -0.1516698 -0.0533735 -0.9869891 0 248 0
11.3625000 -4.9875000 0.3375000 1.0000000 0.0000000 -0.0000000 1 251 0
10.4625000 0.5625000 -0.0375000 -0.0000000 0.0000000 -1.0000000 0 0 0
5.5875000 -9.9375000 1.7625000 -1.0000000 0.0000000 -0.0000000 0 247 1
10.0875000 -10.8375000 0.0375000 -0.0497143 0.0170315 -0.9986183 0 246 0
4.4625000 1.4625000 1.6125000 -0.0000000 1.0000000 -0.0000000 0 1 1
2.8125000 1.4625000 1.9125000 -0.0000000 1.0000000 0.0000000 0 1 1
5.5875000 -9.7875000 1.5375000 -1.0000000 -0.0000000 0.0000000 0 247 1
11.3625000 0.2625000 2.4375000 1.0000000 0.0000000 -0.0000000 1 0 2
5.5875000 -9.7875000 1.6125000 -1.0000000 -0.0000000 -0.0000000 0 247 1
-8.5875000 -2.4375000 -0.0375000 -0.0002842 -0.0080229 -0.9999678 8 254 0
5.5875000 -9.7875000 1.7625000 -1.0000000 0.0000000 0.0000000 0 247 1
9.4875000 -4.9875000 0.0375000 -0.2079590 -0.0674118 -0.9758118 0 252 0
11.3625000 -0.1125000 1.1625000 1.0000000 -0.0000000 0.0000000 1 0 1
8.7375000 -7.4625000 0.4125000 -0.9848914 0.1021868 0.1398096 0 249 0
5.5875000 -9.6375000 1.6875000 -1.0000000 0.0000000 -0.0000000 0 247 1
5.5875000 -10.5375000 1.8375000 -1.0000000 0.0000000 -0.0000000 0 246 1
-5.5875000 1.4625000 1.7625000 -0.0000000 1.0000000 0.0000000 5 1 1
5.5875000 -10.5375000 1.9125000 -1.0000000 0.0000000 0.0000000 0 246 1
5.6625000 -0.9375000 -0.0375000 -0.0000000 -0.0000000 -1.0000000 0 255 0
-4.4625000 -2.2125000 -0.0375000 0.0000000 0.0000000 -1.0000000 4 254 0
5.5875000 -10.3875000 1.9125000 -1.0000000 0.0000000 -0.0000000 0 246 1
5.5875000 -10.2375000 1.8375000 -1.0000000 -0.0000000 0.0000000 0 246 1
5.5875000 -10.2375000 1.9125000 -1.0000000 -0.0000000 -0.0000000 0 246 1
5.5875000 -10.3875000 1.9875000 -1.0000000 0.0000000 0.0000000 0 246 2
5.5875000 -10.2375000 1.9875000 -1.0000000 -0.0000000 0.0000000 0 246 2
5.5875000 -10.6875000 2.1375000 -1.0000000 0.0000000 -0.0000000 0 246 2
10.6125000 -12.1875000 2.5125000 0.0000000 -1.0000000 0.0000000 0 244 2
5.5875000 -3.5625000 0.3375000 -1.0000000 0.0000000 -0.0000000 0 253 0
9.4125000 -11.8875000 0.0375000 -0.0147716 -0.0255854 -0.9995635 0 245 0
5.5875000 -10.6875000 2.2125000 -1.0000000 0.0000000 -0.0000000 0 246 2
7.5375000 -11.2875000 -0.0375000 -0.0425199 0.0000000 -0.9990956 0 245 0
5.5875000 -10.5375000 2.1375000 -1.0000000 0.0000000 -0.0000000 0 246 2
0.1875000 -1.9875000 -0.0375000 -0.1305034 0.3379768 -0.9320625 0 255 0
5.5875000 -10.5375000 2.2125000 -1.0000000 -0.0000000 -0.0000000 0 246 2
5.5875000 -10.6875000 2.3625000 -1.0000000 -0.0000000 0.0000000 0 246 2
5.5875000 -10.2375000 2.2125000 -1.0000000 -0.0000000 0.0000000 0 246 2
5.5875000 -10.3875000 2.3625000 -1.0000000 0.0000000 0.0000000 0 246 2
8.5875000 -10.8375000 2.2125000 -0.9400922 0.2762302 -0.1998090 0 245 2
9.1125000 1.4625000 1.8375000 0.0000000 1.0000000 0.0000000 0 1 1
5.5875000 -7.6125000 0.3375000 -1.0000000 -0.0000000 0.0000000 0 249 0
5.5875000 -10.0875000 1.8375000 -1.0000000 0.0000000 -0.0000000 0 246 1
5.5875000 -9.9375000 1.9125000 -1.0000000 -0.0000000 -0.0000000 0 246 1
11.3625000 -2.8875000 0.2625000 1.0000000 0.0000000 0.0000000 1 254 0
8.5875000 -8.3625000 0.1875000 -0.8170097 -0.5766240 -0.0000000 0 248 0
-8.8125000 -2.6625000 1.0125000 -0.2927986 -0.9559623 0.0201252 8 254 1
7.4625000 -10.6875000 -0.0375000 -0.0000000 -0.0253562 -0.9996785 0 246 0
5.5875000 -9.7875000 1.9875000 -1.0000000 -0.0000000 0.0000000 0 247 2
5.5875000 -9.6375000 1.9875000 -1.0000000 0.0000000 -0.0000000 0 247 2
5.5875000 -9.6375000 2.0625000 -1.0000000 0.0000000 -0.0000000 0 246 2
11.3625000 -0.7875000 1.7625000 1.0000000 -0.0000000 -0.0000000 1 0 1
-10.9125000 -3.1875000 0.1875000 -0.0283260 -0.8121617 -0.5827444 10 253 0
4.6125000 -0.8625000 0.1875000 -0.1827351 -0.9021698 -0.3907653 0 0 0
5.5875000 -10.0875000 2.1375000 -1.0000000 0.0000000 -0.0000000 0 246 2
9.4125000 -12.1875000 1.7625000 -0.0000000 -1.0000000 -0.0000000 0 244 1
5.5875000 -9.9375000 2.2125000 -1.0000000 -0.0000000 -0.0000000 0 246 2
8.7375000 -7.6875000 0.7875000 -0.9884971 0.0656535 0.1362463 0 249 0
8.0625000 -1.0125000 0.7875000 0.0000000 1.0000000 0.0000000 0 255 0
10.0875000 -8.6625000 0.0375000 0.0111382 -0.2102098 -0.9775928 0 248 0
5.5875000 -9.9375000 2.3625000 -1.0000000 0.0000000 0.0000000 0 247 2
5.5875000 -9.6375000 2.1375000 -1.0000000 0.0000000 -0.0000000 0 247 2
9.1875000 -0.7125000 0.1875000 -1.0000000 0.0000000 0.0000000 0 0 0
5.5875000 -9.6375000 2.2125000 -1.0000000 0.0000000 -0.0000000 0 247 2
-9.4125000 1.4625000 1.6125000 0.0000000 1.0000000 -0.0000000 9 1 1
3.4125000 -2.2125000 -0.0375000 0.0000000 0.0000000 -1.0000000 0 254 0
11.3625000 -4.5375000 0.6375000 1.0000000 0.0000000 -0.0000000 1 252 0
-11.3625000 0.0375000 0.4125000 -0.0000000 -0.0000000 -1.0000000 11 0 0
5.5875000 -9.6375000 2.2875000 -1.0000000 0.0000000 0.0000000 0 247 2
8.7375000 -9.9375000 0.3375000 -0.9979395 -0.0611029 0.0195767 0 246 0
-5.9625000 -1.5375000 -0.0375000 0.1316328 0.0276953 -0.9909116 5 255 0
-6.4125000 1.0125000 -0.0375000 0.0000000 0.0000000 -1.0000000 6 1 0
7.3125000 -11.8125000 0.0375000 0.2163818 -0.0107609 -0.9762495 0 245 0
5.5875000 -5.5875000 2.3625000 -1.0000000 -0.0000000 0.0000000 0 251 2
7.3125000 -11.7375000 0.0375000 0.2163818 -0.0107609 -0.9762495 0 245 0
7.4625000 -11.8125000 0.0375000 -0.0425199 0.0000000 -0.9990956 0 245 0
7.8375000 -10.1625000 0.0375000 -0.2163818 -0.0107609 -0.9762495 0 246 0
7.6125000 -11.9625000 0.0375000 0.0000000 0.1738230 -0.9847769 0 245 0
-3.5625000 -0.1875000 0.0375000 -0.0750504 0.1891680 -0.9790725 3 0 0
7.6125000 -11.8875000 0.0375000 0.0192119 -0.0072293 -0.9997893 0 245 0
7.7625000 -11.9625000 0.0375000 -0.0000000 0.1738230 -0.9847769 0 245 0
10.0875000 -8.5125000 -0.0375000 0.0000000 -0.1129178 -0.9936043 0 248 0
7.7625000 -11.8875000 0.0375000 0.0192119 -0.0072293 -0.9997893 0 245 0
0.8625000 1.4625000 1.3875000 -0.0000000 1.0000000 0.0000000 0 1 1
7.6125000 -11.7375000 0.0375000 0.0000000 0.1107347 -0.9938500 0 245 0
11.3625000 -1.6125000 2.5125000 1.0000000 -0.0000000 -0.0000000 1 255 2
-11.3625000 -1.0125000 -0.0375000 -0.0000000 -0.0000000 -1.0000000 11 255 0
7.7625000 -11.8125000 0.0375000 -0.0000000 0.1107347 -0.9938500 0 245 0
7.9125000 0.2625000 -0.0375000 -0.1342504 -0.4067036 -0.9036421 0 0 0
7.7625000 -11.7375000 0.0375000 -0.0000000 0.1107347 -0.9938500 0 245 0
9.6375000 -4.0125000 -0.0375000 -0.0855847 -0.0000000 -0.9963309 0 252 0
5.5875000 -4.7625000 0.9375000 -1.0000000 0.0000000 0.0000000 0 252 0
0.7875000 -2.8125000 0.2625000 -0.0000000 -1.0000000 -0.0000000 0 254 0
7.3125000 -11.6625000 0.0375000 0.2163818 0.0107609 -0.9762495 0 245 0
11.3625000 -12.0375000 2.4375000 0.9592957 -0.2706631 0.0805802 1 244 2
7.3125000 -11.5875000 0.0375000 0.2163818 0.0107609 -0.9762495 0 245 0
-4.9875000 1.4625000 1.9875000 -0.0000000 1.0000000 0.0000000 5 1 2
7.4625000 -11.5875000 0.0375000 -0.0425199 0.0000000 -0.9990956 0 245 0
7.3125000 -11.4375000 0.0375000 0.1041664 0.0264906 -0.9942070 0 245 0
8.7375000 -10.0125000 0.2625000 -0.9490330 -0.3135311 0.0321644 0 247 0
7.4625000 -11.4375000 0.0375000 -0.0425199 0.0000000 -0.9990956 0 245 0
5.9625000 0.2625000 -0.0375000 0.0000000 -0.0000000 -1.0000000 0 0 0
7.7625000 -11.6625000 0.0375000 -0.0425199 -0.0000000 -0.9990956 0 245 0
5.5875000 -3.1875000 2.4375000 -1.0000000 0.0000000 0.0000000 0 253 2
7.7625000 -11.5875000 0.0375000 -0.0000000 0.0000000 -1.0000000 0 245 0
-11.8125000 -4.6875000 1.7625000 -1.0000000 0.0000000 0.0000000 11 252 1
7.6125000 -11.5125000 0.0375000 0.0000000 -0.1107347 -0.9938500 0 245 0
0.8625000 1.4625000 2.0625000 -0.0000000 1.0000000 -0.0000000 0 1 1
-0.0375000 -1.7625000 0.1875000 0.1760763 -0.5181933 -0.8369425 0 255 0
7.6125000 -11.4375000 0.0375000 0.0000000 0.1107347 -0.9938500 0 245 0
10.1625000 -10.2375000 -0.0375000 0.0312940 -0.0636422 -0.9974820 0 246 0
-1.3125000 -1.9125000 -0.0375000 0.0000000 0.0000000 -1.0000000 1 255 0
11.3625000 -11.8875000 1.9125000 1.0000000 -0.0000000 0.0000000 1 245 1
-5.2125000 0.6375000 -0.0375000 -0.0000000 -0.0000000 -1.0000000 5 0 0
7.9125000 -11.9625000 0.0375000 -0.0000000 0.1738230 -0.9847769 0 245 0
7.9125000 -11.8875000 0.0375000 0.0192119 -0.0072293 -0.9997893 0 245 0
8.0625000 -11.9625000 0.0375000 -0.0853590 0.0736539 -0.9936241 0 245 0
5.8125000 -2.8125000 -0.0375000 -0.1507493 0.0000000 -0.9885720 0 254 0
7.9125000 -11.7375000 0.0375000 -0.0000000 0.1107347 -0.9938500 0 245 0
-10.3125000 -0.3375000 0.4125000 0.0376083 0.2267670 -0.9732227 10 0 0
10.5375000 -9.5625000 -0.0375000 -0.0346063 0.0736659 -0.9966824 0 247 0
8.0625000 -11.8125000 0.0375000 -0.1515615 -0.0248544 -0.9881353 0 245 0
11.3625000 -0.2625000 2.5125000 1.0000000 -0.0000000 0.0000000 1 0 2
8.0625000 -11.7375000 0.0375000 -0.1557343 -0.0454405 -0.9867533 0 245 0
-11.8125000 -1.0125000 2.4375000 -1.0000000 -0.0000000 -0.0000000 11 0 2
8.1375000 -11.8875000 0.0375000 -0.1222096 0.0057636 -0.9924876 0 245 0
7.6875000 -0.9375000 1.8375000 0.8366229 0.5477792 0.0000000 0 255 1
7.9125000 -11.5875000 0.0375000 0.0425199 0.0000000 -0.9990956 0 245 0
7.9125000 -11.5125000 0.0375000 -0.0000000 -0.1107347 -0.9938500 0 245 0
-2.5875000 1.4625000 0.8625000 0.0000000 1.0000000 -0.0000000 2 1 0
8.0625000 -11.5125000 0.0375000 -0.2163818 0.0107609 -0.9762495 0 245 0
-3.8625000 0.7875000 -0.0375000 -0.0230590 -0.0662034 -0.9975397 3 0 0
11.3625000 -11.5875000 0.6375000 1.0000000 -0.0000000 -0.0000000 1 245 0
7.3125000 -11.2875000 0.0375000 -0.0425199 -0.0000000 -0.9990956 0 245 0
7.4625000 -11.2125000 0.0375000 -0.0425199 0.0000000 -0.9990956 0 245 0
11.3625000 -12.1875000 0.8625000 0.7059853 -0.7059853 0.0562992 1 244 0
4.1625000 -0.3375000 -0.0375000 0.0000000 -0.0000000 -1.0000000 0 0 0
7.6125000 -11.3625000 0.0375000 0.0000000 0.1107347 -0.9938500 0 245 0
9.9375000 -4.1625000 0.0375000 -0.1506677 -0.0161002 -0.9884533 0 252 0
7.6125000 -11.2875000 0.0375000 0.0000000 -0.0000000 -1.0000000 0 245 0
7.6125000 -11.2125000 0.0375000 0.0000000 -0.1107347 -0.9938500 0 245 0
8.2125000 0.1875000 1.0875000 -0.2467045 -0.9682126 -0.0412450 0 0 1
3.8625000 1.1625000 -0.0375000 0.0000000 0.0000000 -1.0000000 0 0 0
7.6125000 -11.1375000 0.0375000 0.0000000 -0.1107347 -0.9938500 0 245 0
7.7625000 -11.2125000 0.0375000 -0.0000000 -0.1107347 -0.9938500 0 245 0
7.3125000 -11.0625000 0.0375000 -0.0000000 -0.0000000 -1.0000000 0 246 0
9.7125000 -12.1875000 1.6875000 -0.0000000 -1.0000000 -0.0000000 0 244 1
10.5375000 -5.9625000 -0.0375000 0.0000000 0.0000000 -1.0000000 0 251 0
7.4625000 -10.9875000 0.0375000 0.0000000 0.1107347 -0.9938500 0 246 0
7.3125000 -10.9125000 0.0375000 0.0000000 -0.0253562 -0.9996785 0 246 0
7.3125000 -10.8375000 0.0375000 -0.0477301 0.0477301 -0.9977192 0 246 0
7.4625000 -10.9125000 0.0375000 0.0000000 -0.0253562 -0.9996785 0 246 0
7.6125000 -11.0625000 0.0375000 0.0000000 -0.0000000 -1.0000000 0 246 0
7.7625000 -11.0625000 0.0375000 -0.0000000 -0.0000000 -1.0000000 0 246 0
-4.3875000 1.4625000 2.2125000 0.0000000 1.0000000 -0.0000000 4 1 2
7.7625000 -10.9875000 0.0375000 -0.0000000 0.1107347 -0.9938500 0 246 0
7.6125000 -10.9125000 0.0375000 0.0000000 -0.0253562 -0.9996785 0 246 0
7.6125000 -10.8375000 0.0375000 0.0719792 0.0167103 -0.9972661 0 246 0
-5.1375000 1.4625000 1.7625000 0.0000000 1.0000000 0.0000000 5 1 1
8.7375000 -10.2375000 1.8375000 -0.9916024 0.0891351 0.0936993 0 246 1
8.7375000 -11.2125000 2.5125000 -0.9940758 -0.0935171 0.0553888 0 245 2
7.9125000 -11.2125000 0.0375000 0.0425199 0.0000000 -0.9990956 0 245 0
8.0625000 -11.2125000 0.0375000 -0.2409880 -0.0393306 -0.9697308 0 245 0
10.6875000 -2.5125000 -0.0375000 0.0040223 0.0463388 -0.9989177 0 254 0
5.5875000 -4.9875000 1.3125000 -1.0000000 -0.0000000 -0.0000000 0 252 1
7.9125000 -10.9875000 0.0375000 -0.0790941 0.0722630 -0.9942445 0 245 0
8.7375000 -10.6875000 2.5125000 -0.9807328 0.1006730 0.1674160 0 246 2
-3.8625000 -2.7375000 -0.0375000 0.0412742 -0.4342210 -0.8998603 3 254 0
7.9875000 -10.9875000 0.0375000 -0.0937238 -0.0067949 -0.9955750 0 246 0
-4.2375000 0.6375000 0.0375000 0.1167594 0.0483031 -0.9919849 4 0 0
4.6125000 -2.8125000 0.6375000 0.0000000 -1.0000000 0.0000000 0 254 0
7.9125000 -10.9125000 0.0375000 -0.0701026 0.0402243 -0.9967285 0 246 0
11.3625000 -3.0375000 1.6875000 1.0000000 0.0000000 0.0000000 1 253 1
7.9875000 -10.8375000 0.0375000 -0.1690201 -0.0530347 -0.9841847 0 245 0
8.7375000 -9.4875000 1.6875000 -0.9857280 0.1248922 0.1128816 0 247 1
6.8625000 -8.8125000 -0.0375000 -0.0191140 -0.0238154 -0.9995336 0 248 0
8.6625000 -11.9625000 0.1125000 -0.9389495 0.3420451 0.0371355 0 245 0
0.1875000 -2.8125000 2.0625000 0.0000000 -1.0000000 0.0000000 0 254 2
8.6625000 -11.7375000 0.1125000 -0.9876303 0.0300772 0.1538888 0 245 0
8.6625000 -11.9625000 0.1875000 -0.9284767 0.3713907 -0.0000000 0 245 0
8.6625000 -11.9625000 0.2625000 -0.9163662 0.3998514 -0.0197969 0 245 0
-11.8125000 0.0375000 0.5625000 -0.9688359 -0.0746292 -0.2361939 11 0 0
5.5875000 -6.2625000 1.4625000 -1.0000000 0.0000000 0.0000000 0 250 1
-6.4125000 -2.6625000 -0.0375000 -0.0000000 -0.2483274 -0.9686762 6 254 0
8.6625000 -11.8125000 0.1875000 -0.9960229 0.0563176 0.0690411 0 245 0
8.5875000 -9.4875000 0.1875000 -0.8937524 -0.4168776 -0.1655893 0 247 0
8.6625000 -11.7375000 0.1875000 -0.9993834 -0.0351108 -0.0000000 0 245 0
8.9625000 -11.9625000 0.0375000 0.0267794 0.0702944 -0.9971668 0 245 0
-10.6125000 -2.8125000 -0.0375000 -0.0000000 0.0000000 -1.0000000 10 254 0
8.7375000 -7.5375000 1.1625000 -0.9872429 0.0801962 0.1375499 0 249 0
8.8125000 -11.8125000 0.0375000 -0.1443179 0.0437590 -0.9885633 0 245 0
8.8125000 -11.7375000 0.0375000 -0.2563290 0.0061105 -0.9665703 0 245 0
7.6875000 -0.7125000 2.1375000 1.0000000 -0.0000000 -0.0000000 0 0 2
8.9625000 -11.8125000 0.0375000 0.0110062 0.0512333 -0.9986261 0 245 0
8.7375000 -11.8875000 0.1875000 -0.9917909 0.1227987 0.0356553 0 245 0
-8.2125000 -3.2625000 1.0875000 -0.0297357 -0.9894815 -0.1415703 8 253 1
7.7625000 -8.8875000 -0.0375000 -0.0199349 -0.0312879 -0.9993116 0 248 0
8.7375000 -11.8875000 0.2625000 -0.9759610 0.2036773 0.0775611 0 245 0
8.2875000 1.4625000 0.7875000 0.0000000 1.0000000 -0.0000000 0 1 0
-6.7875000 1.4625000 0.6375000 0.0000000 1.0000000 0.0000000 6 1 0
8.6625000 -11.6625000 0.0375000 -0.5415914 0.4495463 -0.7103428 0 245 0
-11.2125000 -3.2625000 0.5625000 -0.0040223 -0.9989177 -0.0463388 11 253 0
8.6625000 -11.5875000 0.0375000 -0.9373437 -0.1231402 -0.3259192 0 245 0
8.6625000 -11.4375000 0.1125000 -0.9625524 -0.1613684 0.2178374 0 245 0
10.6125000 -12.0375000 -0.0375000 -0.0000000 0.1012171 -0.9948644 0 244 0
8.6625000 -11.6625000 0.1875000 -1.0000000 -0.0000000 -0.0000000 0 245 0
8.6625000 -11.5875000 0.1875000 -0.9992900 0.0374579 -0.0040433 0 245 0
5.5875000 -10.6125000 2.4375000 -1.0000000 0.0000000 0.0000000 0 246 2
8.6625000 -11.6625000 0.2625000 -1.0000000 -0.0000000 0.0000000 0 245 0
8.6625000 -11.4375000 0.1875000 -0.9996410 -0.0091837 0.0251707 0 245 0
8.8125000 -11.6625000 0.0375000 -0.2384471 -0.0770021 -0.9680980 0 245 0
8.6625000 -12.1875000 2.1375000 -0.0000000 -1.0000000 0.0000000 0 244 2
8.7375000 -11.5875000 0.1125000 -0.8699197 0.1318551 -0.4752409 0 245 0
5.5875000 -5.9625000 0.7125000 -1.0000000 -0.0000000 0.0000000 0 251 0
8.9625000 -11.6625000 0.0375000 0.0201846 -0.1374742 -0.9902997 0 245 0
-10.3875000 1.4625000 1.3875000 0.0000000 1.0000000 -0.0000000 10 1 1
8.9625000 -11.5875000 0.0375000 -0.0000000 0.0000000 -1.0000000 0 245 0
8.8125000 -11.4375000 0.0375000 -0.3190755 -0.0697370 -0.9451601 0 245 0
2.9625000 -0.6375000 -0.0375000 -0.0000000 -0.0000000 -1.0000000 0 255 0
5.5875000 -4.7625000 0.0375000 -0.8851090 0.0886942 -0.4568539 0 252 0
8.7375000 -11.4375000 0.1125000 -0.9553408 -0.0629758 -0.2887178 0 245 0
5.8125000 1.4625000 0.7125000 -0.0000000 1.0000000 0.0000000 0 1 0
1.3875000 -2.8125000 1.5375000 -0.0000000 -1.0000000 -0.0000000 0 254 1
11.3625000 -8.2875000 2.3625000 1.0000000 -0.0000000 -0.0000000 1 248 2
7.6875000 -0.6375000 0.8625000 1.0000000 -0.0000000 -0.0000000 0 255 0
8.9625000 -11.4375000 0.0375000 0.0422870 -0.0035368 -0.9990992 0 245 0
-8.5875000 -3.2625000 1.0125000 0.0342206 -0.9960349 -0.0821186 8 253 0
8.5875000 -7.1625000 0.3375000 -0.9103665 0.4138030 0.0000000 0 249 0
8.7375000 -11.5875000 0.1875000 -0.9923215 0.0300952 -0.1199680 0 245 0
8.7375000 -11.5875000 0.2625000 -0.9979954 -0.0487890 -0.0403089 0 245 0
8.7375000 -11.4375000 0.1875000 -0.9835593 0.1018454 -0.1491264 0 245 0
8.6625000 -11.8875000 0.3375000 -0.9996998 0.0083064 -0.0230483 0 245 0
11.0625000 -12.1875000 1.3875000 -0.0000000 -1.0000000 -0.0000000 0 244 1
-4.4625000 -2.8125000 2.1375000 -0.0000000 -1.0000000 -0.0000000 4 254 2
8.6625000 -11.8875000 0.4125000 -0.9996998 0.0083064 0.0230483 0 245 0
11.3625000 -2.7375000 0.2625000 1.0000000 -0.0000000 0.0000000 1 254 0
-4.4625000 -2.2875000 -0.0375000 0.0000000 -0.0000000 -1.0000000 4 254 0
8.6625000 -11.8125000 0.3375000 -1.0000000 -0.0000000 0.0000000 0 245 0
8.5875000 -11.1375000 1.7625000 -0.9981073 0.0614760 0.0016032 0 245 1
8.6625000 -11.7375000 0.4125000 -0.9993834 -0.0351108 -0.0000000 0 245 0
8.6625000 -11.8875000 0.4875000 -0.9950125 0.0331522 -0.0940799 0 245 0
-4.7625000 -0.9375000 -0.0375000 -0.0065217 0.0703322 -0.9975023 4 0 0
8.6625000 -11.8875000 0.5625000 -0.9650484 0.0707855 -0.2523312 0 245 0
8.6625000 -11.8125000 0.4875000 -0.9955088 -0.0085863 0.0942787 0 245 0
7.6875000 -0.5625000 2.1375000 1.0000000 -0.0000000 -0.0000000 0 0 2
9.7125000 -10.7625000 0.0375000 -0.0000000 -0.1197473 -0.9928044 0 246 0
8.7375000 -9.1875000 1.0125000 -0.9911518 -0.0000000 0.1327332 0 247 0
8.6625000 -11.7375000 0.4875000 -0.9978131 -0.0261214 0.0607188 0 245 0
-7.3125000 -1.3875000 -0.0375000 0.0000000 -0.0000000 -1.0000000 7 255 0
8.7375000 -11.7375000 0.4125000 -0.9982304 -0.0594650 0.0000000 0 245 0
6.5625000 -3.7875000 -0.0375000 -0.0000000 -0.0000000 -1.0000000 0 253 0
8.7375000 -11.8875000 0.4875000 -0.9776888 0.2097444 0.0114873 0 245 0
8.6625000 -10.6125000 1.3875000 -1.0000000 0.0000000 -0.0000000 0 246 1
8.7375000 -11.8875000 0.5625000 -0.9894943 0.0377379 0.1395595 0 245 0
8.7375000 -11.7375000 0.4875000 -0.9962208 -0.0859062 -0.0128138 0 245 0
8.7375000 -11.7375000 0.5625000 -0.9980623 0.0499176 0.0371462 0 245 0
8.6625000 -11.5875000 0.3375000 -0.9999744 0.0008142 -0.0071143 0 245 0
-2.8125000 -2.0625000 -0.0375000 -0.0000000 0.0000000 -1.0000000 2 254 0
5.5875000 -6.8625000 1.8375000 -1.0000000 -0.0000000 0.0000000 0 250 1
8.6625000 -11.5875000 0.4125000 -0.9992900 0.0374579 0.0040433 0 245 0
6.4875000 -5.5875000 -0.0375000 0.0178424 -0.0659935 -0.9976605 0 251 0
8.6625000 -11.4375000 0.3375000 -0.9996410 -0.0091837 -0.0251707 0 245 0
5.5875000 -7.7625000 0.9375000 -1.0000000 0.0000000 0.0000000 0 249 0
8.6625000 -11.4375000 0.4125000 -0.9996410 -0.0091837 0.0251707 0 245 0
8.6625000 -11.5875000 0.4875000 -0.9938303 0.0167131 -0.1096453 0 245 0
-0.5625000 -0.7125000 -0.0375000 0.0000000 -0.0000000 -1.0000000 0 0 0
11.3625000 -6.9375000 0.4125000 1.0000000 -0.0000000 -0.0000000 1 249 0
10.6875000 -6.6375000 -0.0375000 0.0000000 0.0000000 -1.0000000 0 250 0
7.3875000 0.8625000 -0.0375000 -0.0000000 -0.0000000 -1.0000000 0 0 0
8.6625000 -11.5125000 0.5625000 -0.9035823 -0.0555668 -0.4247956 0 245 0
8.5875000 -11.7375000 0.7875000 -0.9981073 -0.0614760 -0.0016032 0 245 0
8.6625000 -11.4375000 0.5625000 -0.9380872 0.0691069 -0.3394358 0 245 0
8.7375000 -11.4375000 0.3375000 -0.9976901 0.0612527 0.0293710 0 245 0
8.7375000 -11.4375000 0.4125000 -0.9976901 0.0612527 -0.0293710 0 245 0
-2.7375000 -2.8125000 0.8625000 0.0000000 -1.0000000 0.0000000 2 254 0
8.7375000 -11.4375000 0.4875000 -0.9996412 0.0139152 -0.0228855 0 245 0
8.7375000 -11.4375000 0.5625000 -0.9946939 -0.1028253 0.0033160 0 245 0
9.1125000 -11.9625000 0.0375000 -0.0430074 0.0397131 -0.9982851 0 245 0
1.6875000 -2.8125000 0.4125000 -0.0000000 -1.0000000 -0.0000000 0 254 0
9.1125000 -11.8875000 0.0375000 -0.0982087 0.0910838 -0.9909888 0 245 0
9.2625000 -11.8125000 0.0375000 0.0355379 0.0250872 -0.9990534 0 245 0
9.5625000 -11.8875000 0.0375000 -0.0147716 -0.0255854 -0.9995635 0 245 0
9.4125000 -11.8125000 0.0375000 0.0355379 -0.0250872 -0.9990534 0 245 0
11.3625000 -0.8625000 0.1875000 0.9985671 -0.0325637 -0.0424649 1 0 0
11.2125000 -10.2375000 0.0375000 0.0876281 -0.0000000 -0.9961533 1 246 0
9.1125000 -11.5875000 0.0375000 -0.0355379 0.0250872 -0.9990534 0 245 0
9.2625000 -11.5875000 0.0375000 -0.0012318 0.0315372 -0.9995018 0 245 0
9.1125000 -11.4375000 0.0375000 -0.0422870 -0.0035368 -0.9990992 0 245 0
9.2625000 -11.4375000 0.0375000 0.0151967 -0.0064357 -0.9998638 0 245 0
5.2125000 -0.2625000 -0.0375000 -0.0000000 0.0000000 -1.0000000 0 0 0
9.4125000 -11.6625000 0.0375000 -0.0676282 -0.0067625 -0.9976877 0 245 0
9.4125000 -11.5875000 0.0375000 -0.0968390 0.0420219 -0.9944126 0 245 0
11.3625000 -7.8375000 2.1375000 1.0000000 0.0000000 0.0000000 1 249 2
1.3125000 0.1875000 -0.0375000 0.0000000 0.0000000 -1.0000000 0 0 0
9.5625000 -11.6625000 0.0375000 -0.0311303 -0.0478382 -0.9983699 0 245 0
-3.4125000 1.4625000 2.5125000 0.0000000 1.0000000 0.0000000 3 1 2
8.5875000 -11.3625000 0.0375000 -0.7384699 -0.3699010 0.5637690 0 245 0
9.9375000 -5.2875000 -0.0375000 -0.0000000 0.1107347 -0.9938500 0 251 0
8.5875000 -11.2875000 0.0375000 -0.9091269 -0.1093659 0.4019048 0 245 0
-7.6125000 -2.7375000 -0.0375000 0.0518020 -0.2173244 -0.9747239 7 254 0
8.5875000 -11.2875000 0.1125000 -0.9945015 -0.1009566 0.0278306 0 245 0
8.5875000 -11.2125000 0.0375000 -0.9378695 -0.0776664 0.3381846 0 245 0
8.5875000 -11.2125000 0.1125000 -0.9974256 -0.0466545 -0.0544571 0 245 0
8.5875000 -11.1375000 0.1125000 -0.9862149 0.0526181 -0.1568807 0 245 0
6.5625000 1.4625000 0.8625000 0.0000000 1.0000000 -0.0000000 0 1 0
8.5875000 -11.3625000 0.2625000 -0.8642688 -0.5030303 0.0000000 0 245 0
8.7375000 -11.8875000 0.4125000 -0.9835975 0.1762219 0.0384941 0 245 0
0.7875000 -2.8125000 1.5375000 0.0000000 -1.0000000 0.0000000 0 254 1
-11.8125000 0.6375000 2.2125000 -1.0000000 0.0000000 0.0000000 11 0 2
8.5875000 -11.2875000 0.2625000 -0.9985252 -0.0507627 -0.0192521 0 245 0
8.5875000 -11.2125000 0.1875000 -0.9948031 -0.0242843 0.0988795 0 245 0
11.3625000 -8.5875000 0.1875000 0.9918314 0.0000000 -0.1275558 1 248 0
8.5875000 -11.1375000 0.1875000 -0.9981073 0.0614760 0.0016032 0 245 0
-6.0375000 1.4625000 1.5375000 0.0000000 1.0000000 -0.0000000 6 1 1
11.3625000 -1.0125000 0.6375000 1.0000000 -0.0000000 -0.0000000 1 0 0
4.0125000 1.4625000 1.6125000 -0.0000000 1.0000000 -0.0000000 0 1 1
8.5875000 -11.2125000 0.2625000 -0.9948031 -0.0242843 0.0988795 0 245 0
-3.3375000 1.4625000 1.7625000 0.0000000 1.0000000 0.0000000 3 1 1
8.5875000 -11.1375000 0.2625000 -0.9981073 0.0614760 -0.0016032 0 245 0
8.7375000 -11.1375000 0.0375000 -0.1935163 -0.1088108 -0.9750444 0 245 0
-6.4875000 1.4625000 0.1125000 0.0000000 0.9712930 -0.2378864 6 1 0
8.7375000 -11.2125000 0.1125000 -0.5672760 -0.0000000 -0.8235277 0 245 0
8.8875000 -11.2125000 0.0375000 -0.0728481 -0.0928578 -0.9930109 0 245 0
-8.8125000 1.4625000 1.4625000 -0.0000000 1.0000000 0.0000000 8 1 1
11.3625000 -4.3875000 0.2625000 1.0000000 -0.0000000 0.0000000 1 252 0
-8.5125000 1.4625000 1.6125000 0.0000000 1.0000000 -0.0000000 8 1 1
9.1125000 -11.4375000 -0.0375000 0.0312940 -0.0636422 -0.9974820 0 245 0
8.5875000 -9.4875000 0.4875000 -0.9549835 -0.1767651 0.2382447 0 247 0
8.7375000 -11.3625000 0.1875000 -0.9555147 0.2693714 0.1201279 0 245 0
8.7375000 -11.3625000 0.2625000 -0.9731539 0.2301510 0.0014199 0 245 0
10.0125000 -12.1875000 1.9875000 -0.0000000 -1.0000000 -0.0000000 0 244 2
8.7375000 -11.2125000 0.1875000 -0.9805553 0.1133962 -0.1601641 0 245 0
4.6125000 -0.3375000 -0.0375000 0.0000000 -0.0000000 -1.0000000 0 0 0
8.5875000 -11.0625000 0.0375000 -0.9217151 -0.0000000 0.3878675 0 245 0
11.3625000 -7.8375000 1.3125000 1.0000000 0.0000000 -0.0000000 1 248 1
8.5875000 -10.9125000 0.0375000 -0.9378695 0.0776664 0.3381846 0 246 0
4.9875000 -2.8125000 1.1625000 -0.0000000 -1.0000000 -0.0000000 0 254 1
5.5875000 -9.6375000 0.4125000 -1.0000000 0.0000000 0.0000000 0 247 0
8.5875000 -10.9125000 0.1125000 -0.9941602 0.0102251 0.1074284 0 246 0
8.5875000 -10.9875000 0.1875000 -0.9981073 -0.0614760 0.0016032 0 246 0
4.6875000 -1.3875000 0.2625000 -0.4856304 0.5893294 -0.6456423 0 255 0
2.6625000 -2.8125000 1.4625000 -0.0000000 -1.0000000 -0.0000000 0 254 1
-5.5125000 -2.1375000 -0.0375000 -0.0000000 -0.1107347 -0.9938500 5 254 0
8.5875000 -11.0625000 0.2625000 -0.9999306 -0.0113689 0.0030822 0 245 0
4.4625000 -2.5875000 -0.0375000 -0.0413469 -0.0521730 -0.9977817 0 254 0
8.5875000 -10.9875000 0.2625000 -0.9981073 -0.0614760 -0.0016032 0 246 0
8.5875000 -10.9125000 0.1875000 -0.9999873 0.0004142 -0.0050141 0 246 0
8.5875000 -10.8375000 0.2625000 -0.9984224 -0.0035904 0.0560333 0 246 0
9.4125000 -3.0375000 0.0375000 0.0395588 0.0391979 -0.9984481 0 253 0
11.3625000 -5.2875000 0.9375000 1.0000000 0.0000000 -0.0000000 1 251 1
8.7375000 -11.0625000 0.0375000 -0.2317550 0.0000000 -0.9727742 0 245 0
5.5875000 -9.1125000 0.3375000 -1.0000000 -0.0000000 -0.0000000 0 247 0
8.7375000 -10.9875000 0.0375000 -0.1935163 0.1088108 -0.9750444 0 246 0
8.7375000 -11.0625000 0.1125000 -0.5672760 0.0000000 -0.8235277 0 246 0
10.8375000 -4.6875000 -0.0375000 0.0000000 -0.0000000 -1.0000000 0 252 0
8.8875000 -11.0625000 0.0375000 -0.0728481 0.0928578 -0.9930109 0 245 0
-2.4375000 -2.8125000 0.5625000 -0.0000000 -1.0000000 -0.0000000 3 254 0
11.3625000 -3.6375000 0.0375000 0.8604855 -0.0306379 -0.5085528 1 253 0
8.7375000 -10.9125000 0.0375000 -0.2317550 0.0000000 -0.9727742 0 246 0
8.7375000 -10.8375000 0.0375000 -0.1935163 0.1088108 -0.9750444 0 246 0
0.4875000 -2.8125000 1.6125000 -0.0000000 -1.0000000 -0.0000000 0 254 1
8.7375000 -10.9125000 0.1125000 -0.5672760 0.0000000 -0.8235277 0 246 0
4.0875000 -2.8125000 2.4375000 0.0000000 -1.0000000 0.0000000 0 254 2
-2.8875000 0.5625000 -0.0375000 0.0441762 -0.0180769 -0.9988602 2 0 0
8.8875000 -10.8375000 0.0375000 -0.2007721 -0.1459082 -0.9687112 0 246 0
-9.6375000 0.4125000 0.3375000 -0.4644356 0.0199922 -0.8853812 9 0 0
8.7375000 -11.0625000 0.2625000 -0.7586520 -0.1336112 0.6376482 0 246 0
8.5875000 -11.2875000 0.4125000 -0.9985252 -0.0507627 0.0192521 0 245 0
10.6125000 -11.7375000 -0.0375000 -0.0000000 -0.1107347 -0.9938500 0 245 0
5.8125000 -3.4875000 -0.0375000 -0.0974244 -0.0000000 -0.9952429 0 253 0
8.5875000 -11.1375000 0.3375000 -0.9981073 0.0614760 0.0016032 0 245 0
8.5875000 -11.2875000 0.5625000 -0.9993144 -0.0351568 -0.0116061 0 245 0
8.5875000 -11.2125000 0.4875000 -0.9997514 0.0044146 0.0218560 0 245 0
8.5875000 -11.1375000 0.5625000 -0.9981073 0.0614760 0.0016032 0 245 0
3.8625000 -2.8125000 1.0125000 -0.0000000 -1.0000000 -0.0000000 0 254 1
5.5875000 -8.8125000 1.6875000 -1.0000000 0.0000000 0.0000000 0 248 1
8.7375000 -11.3625000 0.3375000 -0.9731539 0.2301510 -0.0014199 0 245 0
-3.8625000 -1.7625000 -0.0375000 -0.0000000 -0.0000000 -1.0000000 3 255 0
8.7375000 -11.3625000 0.4125000 -0.9731539 0.2301510 0.0014199 0 245 0
1.7625000 -1.6125000 -0.0375000 0.0000000 0.0000000 -1.0000000 0 255 0
8.7375000 -11.2125000 0.3375000 -0.7586520 0.1336112 -0.6376482 0 245 0
8.7375000 -11.2125000 0.4125000 -0.7586520 0.1336112 0.6376482 0 245 0
8.7375000 -11.2125000 0.4875000 -0.7586520 0.1336112 0.6376482 0 245 0
8.5875000 -11.0625000 0.3375000 -0.9999306 -0.0113689 -0.0030822 0 245 0
8.5875000 -10.9875000 0.3375000 -0.9981073 -0.0614760 0.0016032 0 246 0
8.7375000 -10.0875000 1.3125000 -0.9964531 0.0814620 0.0210988 0 246 1
9.1125000 -0.0375000 0.7875000 -0.8038286 -0.5883243 -0.0879432 0 0 0
8.5875000 -11.0625000 0.4125000 -0.9999306 0.0113689 0.0030822 0 245 0
8.5875000 -10.9875000 0.4125000 -0.9981073 -0.0614760 -0.0016032 0 246 0
10.4625000 1.4625000 0.4125000 -0.0000000 1.0000000 0.0000000 0 1 0
10.2375000 -2.2875000 -0.0375000 0.0108355 0.1350319 -0.9907820 0 254 0
8.5875000 -10.8375000 0.3375000 -0.9850757 0.1524275 0.0799484 0 246 0
5.5875000 -4.0125000 0.1875000 -0.9918314 -0.0000000 -0.1275558 0 253 0
8.5875000 -10.6125000 0.6375000 -0.9373401 -0.0000000 -0.3484159 0 246 0
8.5875000 -10.9125000 0.4125000 -0.9804175 0.1969179 -0.0021859 0 246 0
11.2125000 -12.1875000 1.5375000 0.1692784 -0.9849857 0.0338822 1 244 1
8.5875000 -11.0625000 0.5625000 -0.9999306 -0.0113689 -0.0030822 0 245 0
6.7125000 -3.8625000 -0.0375000 0.0000000 -0.0000000 -1.0000000 0 253 0
8.5875000 -10.9875000 0.5625000 -0.9981073 -0.0614760 0.0016032 0 246 0
10.7625000 -12.1875000 0.9375000 0.0000000 -1.0000000 0.0000000 0 244 1
-7.7625000 1.3875000 -0.0375000 -0.0000000 0.3723964 -0.9280738 7 1 0
-7.9875000 -2.8125000 1.8375000 0.1327238 -0.9906242 -0.0323737 8 254 1
8.7375000 -8.2875000 1.9875000 -1.0000000 0.0000000 0.0000000 0 248 2
8.5875000 -10.9125000 0.4875000 -0.9804175 0.1969179 0.0021859 0 246 0
8.5875000 -10.9125000 0.5625000 -0.9932310 0.0910379 0.0721403 0 246 0
8.5875000 1.4625000 0.5625000 -0.0000000 1.0000000 0.0000000 0 1 0
8.7375000 -11.0625000 0.4875000 -0.7586520 -0.1336112 0.6376482 0 246 0
8.7375000 -10.9125000 0.5625000 -0.9317656 -0.3470653 -0.1065764 0 246 0
11.3625000 -9.4875000 1.2375000 1.0000000 0.0000000 0.0000000 1 247 1
5.5875000 -3.7125000 0.0375000 -0.8067198 -0.0426891 -0.5893902 0 253 0
9.0375000 -11.1375000 0.0375000 -0.0000000 -0.1107347 -0.9938500 0 245 0
9.3375000 -11.3625000 0.0375000 -0.0249215 0.0243829 -0.9993920 0 245 0
8.5875000 -11.7375000 2.1375000 -0.9981073 -0.0614760 0.0016032 0 245 2
9.3375000 -11.2125000 0.0375000 -0.0425199 0.0000000 -0.9990956 0 245 0
11.3625000 -1.3125000 0.7125000 1.0000000 -0.0000000 0.0000000 1 255 0
8.3625000 -1.8375000 -0.0375000 0.0000000 -0.0000000 -1.0000000 0 255 0
9.4875000 -11.2125000 0.0375000 -0.0425199 0.0000000 -0.9990956 0 245 0
9.4875000 -11.1375000 0.0375000 0.0000000 -0.1107347 -0.9938500 0 245 0
11.3625000 -0.7125000 2.5125000 1.0000000 0.0000000 -0.0000000 1 0 2
9.0375000 -10.9875000 0.0375000 -0.0000000 0.1107347 -0.9938500 0 246 0
9.1875000 -11.0625000 0.0375000 -0.0000000 -0.0000000 -1.0000000 0 245 0
11.3625000 -3.6375000 0.6375000 1.0000000 -0.0000000 -0.0000000 1 253 0
-9.8625000 1.4625000 0.4875000 0.0479690 0.9663866 -0.2525785 9 1 0
9.1875000 -10.9125000 0.0375000 0.0156295 0.0900503 -0.9958146 0 246 0
5.5875000 -11.2875000 0.5625000 -1.0000000 -0.0000000 0.0000000 0 245 0
8.7375000 -7.4625000 0.5625000 -0.9880486 0.1511789 -0.0300806 0 249 0
9.3375000 -11.0625000 0.0375000 -0.0425199 0.0000000 -0.9990956 0 245 0
11.3625000 -0.1125000 0.0375000 0.8343447 -0.1125927 -0.5396219 1 0 0
9.3375000 -10.9875000 0.0375000 0.0000000 0.1107347 -0.9938500 0 246 0
9.1125000 -1.3875000 0.0375000 0.1577274 -0.0906386 -0.9833141 0 255 0
-7.3125000 -2.1375000 -0.0375000 0.0000000 0.0000000 -1.0000000 7 254 0
9.7875000 -0.8625000 0.0375000 -0.0615790 0.0567218 -0.9964892 0 0 0
7.3125000 -8.2875000 -0.0375000 0.0296977 -0.0731581 -0.9968781 0 248 0
9.4875000 -10.9875000 0.0375000 0.0000000 0.1107347 -0.9938500 0 246 0
4.6125000 0.0375000 -0.0375000 0.0000000 -0.0000000 -1.0000000 0 0 0
8.5875000 -11.8125000 1.7625000 -0.9999306 0.0113689 -0.0030822 0 245 1
9.6375000 -0.8625000 0.0375000 0.0765353 0.0128516 -0.9969840 0 0 0
-3.3375000 1.4625000 0.5625000 0.0000000 1.0000000 -0.0000000 3 1 0
7.0875000 -12.1875000 0.2625000 -0.0000000 -1.0000000 -0.0000000 0 244 0
-11.8125000 0.7875000 1.8375000 -1.0000000 0.0000000 0.0000000 11 0 1
1.6125000 1.4625000 0.1125000 0.0248828 0.9877040 -0.1543429 0 1 0
9.3375000 -10.8375000 0.0375000 -0.0276137 0.0279469 -0.9992279 0 246 0
-1.6125000 -2.8125000 1.5375000 -0.0000000 -1.0000000 -0.0000000 1 254 1
8.7375000 -10.7625000 1.9875000 -0.9910918 -0.1140779 -0.0687266 0 246 1
9.4875000 -10.8375000 0.0375000 -0.0590784 0.0146663 -0.9981456 0 246 0
8.5875000 -11.9625000 0.6375000 -0.9487076 -0.2931205 0.1184666 0 245 0
8.5875000 0.1125000 1.0125000 -0.2213823 -0.9748165 0.0268836 0 0 1
8.5875000 -11.8875000 0.6375000 -0.9124882 0.0564516 -0.4051895 0 245 0
