ply
format ascii 1.0
element face 0
property list uchar int vertex_indices
element vertex 1281
property float x
property float y
property float z
property uchar red
property uchar green
property uchar blue
end_header
-5.6589395 5.2183747 1.1767695 2 1 1
-5.6589395 5.2183747 1.2517695 2 1 1
-5.5089395 5.2183747 1.1767695 2 1 1
-5.5089395 5.2183747 1.2517695 2 1 1
-5.6589395 5.2183747 1.3267695 2 1 2
-5.6589395 5.2183747 1.4017695 2 1 1
-5.5089395 5.2183747 1.3267695 2 1 2
-5.5089395 5.2183747 1.4017695 2 1 2
-5.9589395 5.2183747 1.4767695 2 1 2
-5.9589395 5.2183747 1.5517695 2 1 2
-5.8089395 5.2183747 1.4767695 2 1 2
-5.8089395 5.2183747 1.5517695 2 1 2
-5.9589395 5.2183747 1.6267695 2 1 2
-5.9589395 5.2183747 1.7017695 2 1 2
-5.8089395 5.2183747 1.6267695 2 1 2
-5.8089395 5.2183747 1.7017695 2 1 2
-5.6589395 5.2183747 1.4767695 2 1 2
-5.6589395 5.2183747 1.5517695 2 1 2
-5.5089395 5.2183747 1.4767695 2 1 2
-5.5089395 5.2183747 1.5517695 2 1 2
-5.6589395 5.2183747 1.6267695 2 1 2
-5.6589395 5.2183747 1.7017695 2 1 2
-5.5089395 5.2183747 1.6267695 2 1 2
-5.5089395 5.2183747 1.7017695 2 0 0
-5.3589395 4.3933747 -0.6232305 2 0 0
-5.3589395 4.4683747 -0.6232305 2 0 0
-5.4339395 4.5433747 -0.6232305 2 0 0
-5.4339395 4.6183747 -0.6232305 2 0 0
-5.2839395 4.5433747 -0.6232305 2 0 0
-5.1339395 4.5433747 -0.6232305 2 0 0
-5.0589395 4.6183747 -0.6232305 1 0 0
-5.4339395 4.6933747 -0.6232305 2 0 0
-5.0589395 4.6933747 -0.6232305 1 1 0
-4.9839395 4.6933747 -0.6232305 1 0 0
-4.9839395 4.7683747 -0.6232305 1 1 0
-4.9089395 4.8433747 -0.6232305 1 1 0
-5.4339395 5.2183747 -0.6232305 2 1 0
-5.4339395 5.2183747 -0.5482305 2 1 0
-5.2839395 5.2183747 -0.6232305 2 1 0
-5.2839395 5.2183747 -0.5482305 2 1 0
-5.4339395 5.2183747 -0.4732305 2 1 0
-5.4339395 5.2183747 -0.3982305 2 1 0
-5.2839395 5.2183747 -0.4732305 2 1 0
-5.2839395 5.2183747 -0.3982305 2 1 0
-5.1339395 5.2183747 -0.6232305 1 1 0
-5.1339395 5.2183747 -0.5482305 1 1 0
-4.9839395 5.2183747 -0.6232305 1 1 0
-4.9839395 5.2183747 -0.5482305 1 1 0
-5.1339395 5.2183747 -0.4732305 1 1 0
-5.1339395 5.2183747 -0.3982305 1 1 0
-4.9839395 5.2183747 -0.4732305 1 1 0
-4.9839395 5.2183747 -0.3982305 1 1 0
-5.4339395 5.2183747 -0.3232305 2 1 0
-5.4339395 5.2183747 -0.2482305 2 1 0
-5.2839395 5.2183747 -0.3232305 2 1 0
-5.2839395 5.2183747 -0.2482305 2 1 0
-5.4339395 5.2183747 -0.1732305 2 1 0
-5.4339395 5.2183747 -0.0982305 2 1 0
-5.2839395 5.2183747 -0.1732305 2 1 0
-5.2839395 5.2183747 -0.0982305 2 1 0
-5.1339395 5.2183747 -0.3232305 1 1 0
-5.1339395 5.2183747 -0.2482305 1 1 0
-4.9839395 5.2183747 -0.3232305 1 1 0
-4.9839395 5.2183747 -0.2482305 1 1 0
-5.1339395 5.2183747 -0.1732305 1 1 0
-5.1339395 5.2183747 -0.0982305 1 1 0
-4.9839395 5.2183747 -0.1732305 1 1 0
-4.9839395 5.2183747 -0.0982305 1 1 0
-4.8339395 5.2183747 -0.6232305 1 1 0
-4.8339395 5.2183747 -0.5482305 1 1 0
-4.6839395 5.2183747 -0.6232305 1 1 0
-4.6839395 5.2183747 -0.5482305 1 1 0
-4.8339395 5.2183747 -0.4732305 1 1 0
-4.8339395 5.2183747 -0.3982305 1 1 0
-4.6839395 5.2183747 -0.4732305 1 1 0
-4.6839395 5.2183747 -0.3982305 1 1 0
-4.5339395 5.2183747 -0.6232305 1 1 0
-4.5339395 5.2183747 -0.5482305 1 1 0
-4.3839395 5.2183747 -0.6232305 1 1 0
-4.3839395 5.2183747 -0.5482305 1 1 0
-4.5339395 5.2183747 -0.4732305 1 1 0
-4.5339395 5.2183747 -0.3982305 1 1 0
-4.3839395 5.2183747 -0.4732305 1 1 0
-4.3839395 5.2183747 -0.3982305 1 1 0
-4.8339395 5.2183747 -0.3232305 1 1 0
-4.8339395 5.2183747 -0.2482305 1 1 0
-4.6839395 5.2183747 -0.3232305 1 1 0
-4.6839395 5.2183747 -0.2482305 1 1 0
-4.8339395 5.2183747 -0.1732305 1 1 0
-4.8339395 5.2183747 -0.0982305 1 1 0
-4.6839395 5.2183747 -0.1732305 1 1 0
-4.6839395 5.2183747 -0.0982305 1 1 0
-4.5339395 5.2183747 -0.3232305 1 1 0
-4.5339395 5.2183747 -0.2482305 1 1 0
-4.3839395 5.2183747 -0.3232305 1 1 0
-4.3839395 5.2183747 -0.2482305 1 1 0
-4.5339395 5.2183747 -0.1732305 1 1 0
-4.5339395 5.2183747 -0.0982305 1 1 0
-4.3839395 5.2183747 -0.1732305 1 1 0
-4.3839395 5.2183747 -0.0982305 1 1 0
-5.4339395 5.2183747 -0.0232305 2 1 0
-5.4339395 5.2183747 0.0517695 2 1 0
-5.2839395 5.2183747 -0.0232305 2 1 0
-5.2839395 5.2183747 0.0517695 2 1 0
-5.4339395 5.2183747 0.1267695 2 1 0
-5.4339395 5.2183747 0.2017695 2 1 0
-5.2839395 5.2183747 0.1267695 2 1 0
-5.2839395 5.2183747 0.2017695 2 1 0
-5.1339395 5.2183747 -0.0232305 1 1 0
-5.1339395 5.2183747 0.0517695 1 1 0
-4.9839395 5.2183747 -0.0232305 1 1 0
-4.9839395 5.2183747 0.0517695 1 1 0
-5.1339395 5.2183747 0.1267695 1 1 0
-5.1339395 5.2183747 0.2017695 1 1 0
-4.9839395 5.2183747 0.1267695 1 1 0
-4.9839395 5.2183747 0.2017695 1 1 0
-5.4339395 5.2183747 0.2767695 2 1 0
-5.4339395 5.2183747 0.3517695 2 1 1
-5.2839395 5.2183747 0.2767695 2 1 0
-5.2839395 5.2183747 0.3517695 2 1 1
-5.4339395 5.2183747 0.4267695 2 1 1
-5.4339395 5.2183747 0.5017695 2 1 1
-5.2839395 5.2183747 0.4267695 2 1 1
-5.2839395 5.2183747 0.5017695 2 1 1
-5.1339395 5.2183747 0.2767695 1 1 0
-5.1339395 5.2183747 0.3517695 1 1 1
-4.9839395 5.2183747 0.2767695 1 1 0
-4.9839395 5.2183747 0.3517695 1 1 1
-5.1339395 5.2183747 0.4267695 1 1 1
-5.1339395 5.2183747 0.5017695 1 1 1
-4.9839395 5.2183747 0.4267695 1 1 1
-4.9839395 5.2183747 0.5017695 1 1 1
-4.8339395 5.2183747 -0.0232305 1 1 0
-4.8339395 5.2183747 0.0517695 1 1 0
-4.6839395 5.2183747 -0.0232305 1 1 0
-4.6839395 5.2183747 0.0517695 1 1 0
-4.8339395 5.2183747 0.1267695 1 1 0
-4.8339395 5.2183747 0.2017695 1 1 0
-4.6839395 5.2183747 0.1267695 1 1 0
-4.6839395 5.2183747 0.2017695 1 1 0
-4.5339395 5.2183747 -0.0232305 1 1 0
-4.5339395 5.2183747 0.0517695 1 1 0
-4.3839395 5.2183747 -0.0232305 1 1 0
-4.3839395 5.2183747 0.0517695 1 1 0
-4.5339395 5.2183747 0.1267695 1 1 0
-4.5339395 5.2183747 0.2017695 1 1 0
-4.3839395 5.2183747 0.1267695 1 1 0
-4.3839395 5.2183747 0.2017695 1 1 0
-4.8339395 5.2183747 0.2767695 1 1 0
-4.8339395 5.2183747 0.3517695 1 1 1
-4.6839395 5.2183747 0.2767695 1 1 0
-4.6839395 5.2183747 0.3517695 1 1 1
-4.8339395 5.2183747 0.4267695 1 1 1
-4.8339395 5.2183747 0.5017695 1 1 1
-4.6839395 5.2183747 0.4267695 1 1 1
-4.6839395 5.2183747 0.5017695 1 1 1
-4.5339395 5.2183747 0.2767695 1 1 0
-4.5339395 5.2183747 0.3517695 1 1 1
-4.3839395 5.2183747 0.2767695 1 1 0
-4.3839395 5.2183747 0.3517695 1 1 1
-4.5339395 5.2183747 0.4267695 1 1 1
-4.5339395 5.2183747 0.5017695 1 1 1
-4.3839395 5.2183747 0.4267695 1 1 1
-4.3839395 5.2183747 0.5017695 1 1 1
-4.2339395 5.2183747 -0.6232305 1 1 0
-4.2339395 5.2183747 -0.5482305 1 1 0
-4.0839395 5.2183747 -0.6232305 0 1 0
-4.0839395 5.2183747 -0.5482305 0 1 0
-4.2339395 5.2183747 -0.4732305 1 1 0
-4.2339395 5.2183747 -0.3982305 1 1 0
-4.0839395 5.2183747 -0.4732305 0 1 0
-4.0839395 5.2183747 -0.3982305 0 1 0
-3.9339395 5.2183747 -0.6232305 0 1 0
-3.9339395 5.2183747 -0.5482305 0 1 0
-3.7839395 5.2183747 -0.6232305 0 1 0
-3.7839395 5.2183747 -0.5482305 0 1 0
-3.9339395 5.2183747 -0.4732305 0 1 0
-3.9339395 5.2183747 -0.3982305 0 1 0
-3.7839395 5.2183747 -0.4732305 0 1 0
-3.7839395 5.2183747 -0.3982305 0 1 0
-4.2339395 5.2183747 -0.3232305 1 1 0
-4.2339395 5.2183747 -0.2482305 1 1 0
-4.0839395 5.2183747 -0.3232305 0 1 0
-4.0839395 5.2183747 -0.2482305 0 1 0
-4.2339395 5.2183747 -0.1732305 1 1 0
-4.2339395 5.2183747 -0.0982305 1 1 0
-4.0839395 5.2183747 -0.1732305 0 1 0
-4.0839395 5.2183747 -0.0982305 0 1 0
-3.9339395 5.2183747 -0.3232305 0 1 0
-3.9339395 5.2183747 -0.2482305 0 1 0
-3.7839395 5.2183747 -0.3232305 0 1 0
-3.7839395 5.2183747 -0.2482305 0 1 0
-3.9339395 5.2183747 -0.1732305 0 1 0
-3.9339395 5.2183747 -0.0982305 0 1 0
-3.7839395 5.2183747 -0.1732305 0 1 0
-3.7839395 5.2183747 -0.0982305 0 1 0
-3.6339395 5.2183747 -0.6232305 0 1 0
-3.6339395 5.2183747 -0.5482305 0 1 0
-3.4839395 5.2183747 -0.6232305 0 1 0
-3.4839395 5.2183747 -0.5482305 0 1 0
-3.6339395 5.2183747 -0.4732305 0 1 0
-3.6339395 5.2183747 -0.3982305 0 1 0
-3.4839395 5.2183747 -0.4732305 0 1 0
-3.4839395 5.2183747 -0.3982305 0 1 0
-3.3339395 5.2183747 -0.6232305 0 1 0
-3.3339395 5.2183747 -0.5482305 0 1 0
-3.1839395 5.2183747 -0.6232305 0 1 0
-3.1839395 5.2183747 -0.5482305 0 1 0
-3.3339395 5.2183747 -0.4732305 0 1 0
-3.3339395 5.2183747 -0.3982305 0 1 0
-3.1839395 5.2183747 -0.4732305 0 1 0
-3.1839395 5.2183747 -0.3982305 0 1 0
-3.6339395 5.2183747 -0.3232305 0 1 0
-3.6339395 5.2183747 -0.2482305 0 1 0
-3.4839395 5.2183747 -0.3232305 0 1 0
-3.4839395 5.2183747 -0.2482305 0 1 0
-3.6339395 5.2183747 -0.1732305 0 1 0
-3.6339395 5.2183747 -0.0982305 0 1 0
-3.4839395 5.2183747 -0.1732305 0 1 0
-3.4839395 5.2183747 -0.0982305 0 1 0
-3.3339395 5.2183747 -0.3232305 0 1 0
-3.3339395 5.2183747 -0.2482305 0 1 0
-3.1839395 5.2183747 -0.3232305 0 1 0
-3.1839395 5.2183747 -0.2482305 0 1 0
-3.3339395 5.2183747 -0.1732305 0 1 0
-3.3339395 5.2183747 -0.0982305 0 1 0
-3.1839395 5.2183747 -0.1732305 0 1 0
-3.1839395 5.2183747 -0.0982305 0 1 0
-4.2339395 5.2183747 -0.0232305 1 1 0
-4.2339395 5.2183747 0.0517695 1 1 0
-4.0839395 5.2183747 -0.0232305 0 1 0
-4.0839395 5.2183747 0.0517695 0 1 0
-4.2339395 5.2183747 0.1267695 1 1 0
-4.2339395 5.2183747 0.2017695 1 1 0
-4.0839395 5.2183747 0.1267695 0 1 0
-4.0839395 5.2183747 0.2017695 0 1 0
-3.9339395 5.2183747 -0.0232305 0 1 0
-3.9339395 5.2183747 0.0517695 0 1 0
-3.7839395 5.2183747 -0.0232305 0 1 0
-3.7839395 5.2183747 0.0517695 0 1 0
-3.9339395 5.2183747 0.1267695 0 1 0
-3.9339395 5.2183747 0.2017695 0 1 0
-3.7839395 5.2183747 0.1267695 0 1 0
-3.7839395 5.2183747 0.2017695 0 1 0
-4.2339395 5.2183747 0.2767695 1 1 0
-4.2339395 5.2183747 0.3517695 1 1 1
-4.0839395 5.2183747 0.2767695 0 1 0
-4.0839395 5.2183747 0.3517695 0 1 1
-4.2339395 5.2183747 0.4267695 1 1 1
-4.2339395 5.2183747 0.5017695 1 1 1
-4.0839395 5.2183747 0.4267695 0 1 1
-4.0839395 5.2183747 0.5017695 0 1 1
-3.9339395 5.2183747 0.2767695 0 1 0
-3.9339395 5.2183747 0.3517695 0 1 1
-3.7839395 5.2183747 0.2767695 0 1 0
-3.7839395 5.2183747 0.3517695 0 1 1
-3.9339395 5.2183747 0.4267695 0 1 1
-3.9339395 5.2183747 0.5017695 0 1 1
-3.7839395 5.2183747 0.4267695 0 1 1
-3.7839395 5.2183747 0.5017695 0 1 1
-3.6339395 5.2183747 -0.0232305 0 1 0
-3.6339395 5.2183747 0.0517695 0 1 0
-3.4839395 5.2183747 -0.0232305 0 1 0
-3.4839395 5.2183747 0.0517695 0 1 0
-3.6339395 5.2183747 0.1267695 0 1 0
-3.6339395 5.2183747 0.2017695 0 1 0
-3.4839395 5.2183747 0.1267695 0 1 0
-3.4839395 5.2183747 0.2017695 0 1 0
-3.3339395 5.2183747 -0.0232305 0 1 0
-3.3339395 5.2183747 0.0517695 0 1 0
-3.1839395 5.2183747 -0.0232305 0 1 0
-3.1839395 5.2183747 0.0517695 0 1 0
-3.3339395 5.2183747 0.1267695 0 1 0
-3.3339395 5.2183747 0.2017695 0 1 0
-3.1839395 5.2183747 0.1267695 0 1 0
-3.1839395 5.2183747 0.2017695 0 1 0
-3.6339395 5.2183747 0.2767695 0 1 0
-3.6339395 5.2183747 0.3517695 0 1 1
-3.4839395 5.2183747 0.2767695 0 1 0
-3.4839395 5.2183747 0.3517695 0 1 1
-3.6339395 5.2183747 0.4267695 0 1 1
-3.6339395 5.2183747 0.5017695 0 1 1
-3.4839395 5.2183747 0.4267695 0 1 1
-3.4839395 5.2183747 0.5017695 0 1 1
-3.3339395 5.2183747 0.2767695 0 1 0
-3.3339395 5.2183747 0.3517695 0 1 1
-3.1839395 5.2183747 0.2767695 0 1 0
-3.1839395 5.2183747 0.3517695 0 1 1
-3.3339395 5.2183747 0.4267695 0 1 1
-3.3339395 5.2183747 0.5017695 0 1 1
-3.1839395 5.2183747 0.4267695 0 1 1
-3.1839395 5.2183747 0.5017695 0 1 1
-5.4339395 5.2183747 0.5767695 2 1 1
-5.4339395 5.2183747 0.6517695 2 1 1
-5.2839395 5.2183747 0.5767695 2 1 1
-5.2839395 5.2183747 0.6517695 2 1 1
-5.4339395 5.2183747 0.7267695 2 1 1
-5.4339395 5.2183747 0.8017695 2 1 1
-5.2839395 5.2183747 0.7267695 2 1 1
-5.2839395 5.2183747 0.8017695 2 1 1
-5.1339395 5.2183747 0.5767695 1 1 1
-5.1339395 5.2183747 0.6517695 1 1 1
-4.9839395 5.2183747 0.5767695 1 1 1
-4.9839395 5.2183747 0.6517695 1 1 1
-5.1339395 5.2183747 0.7267695 1 1 1
-5.1339395 5.2183747 0.8017695 1 1 1
-4.9839395 5.2183747 0.7267695 1 1 1
-4.9839395 5.2183747 0.8017695 1 1 1
-5.4339395 5.2183747 0.8767695 2 1 1
-5.4339395 5.2183747 0.9517695 2 1 1
-5.2839395 5.2183747 0.8767695 2 1 1
-5.2839395 5.2183747 0.9517695 2 1 1
-5.4339395 5.2183747 1.0267695 2 1 1
-5.4339395 5.2183747 1.1017695 2 1 1
-5.2839395 5.2183747 1.0267695 2 1 1
-5.2839395 5.2183747 1.1017695 2 1 1
-5.1339395 5.2183747 0.8767695 1 1 1
-5.1339395 5.2183747 0.9517695 1 1 1
-4.9839395 5.2183747 0.8767695 1 1 1
-4.9839395 5.2183747 0.9517695 1 1 1
-5.1339395 5.2183747 1.0267695 1 1 1
-5.1339395 5.2183747 1.1017695 1 1 1
-4.9839395 5.2183747 1.0267695 1 1 1
-4.9839395 5.2183747 1.1017695 1 1 1
-4.8339395 5.2183747 0.5767695 1 1 1
-4.8339395 5.2183747 0.6517695 1 1 1
-4.6839395 5.2183747 0.5767695 1 1 1
-4.6839395 5.2183747 0.6517695 1 1 1
-4.8339395 5.2183747 0.7267695 1 1 1
-4.8339395 5.2183747 0.8017695 1 1 1
-4.6839395 5.2183747 0.7267695 1 1 1
-4.6839395 5.2183747 0.8017695 1 1 1
-4.5339395 5.2183747 0.5767695 1 1 1
-4.5339395 5.2183747 0.6517695 1 1 1
-4.3839395 5.2183747 0.5767695 1 1 1
-4.3839395 5.2183747 0.6517695 1 1 1
-4.5339395 5.2183747 0.7267695 1 1 1
-4.5339395 5.2183747 0.8017695 1 1 1
-4.3839395 5.2183747 0.7267695 1 1 1
-4.3839395 5.2183747 0.8017695 1 1 1
-4.8339395 5.2183747 0.8767695 1 1 1
-4.8339395 5.2183747 0.9517695 1 1 1
-4.6839395 5.2183747 0.8767695 1 1 1
-4.6839395 5.2183747 0.9517695 1 1 1
-4.8339395 5.2183747 1.0267695 1 1 1
-4.8339395 5.2183747 1.1017695 1 1 1
-4.6839395 5.2183747 1.0267695 1 1 1
-4.6839395 5.2183747 1.1017695 1 1 1
-4.5339395 5.2183747 0.8767695 1 1 1
-4.5339395 5.2183747 0.9517695 1 1 1
-4.3839395 5.2183747 0.8767695 1 1 1
-4.3839395 5.2183747 0.9517695 1 1 1
-4.5339395 5.2183747 1.0267695 1 1 1
-4.5339395 5.2183747 1.1017695 1 1 1
-4.3839395 5.2183747 1.0267695 1 1 1
-4.3839395 5.2183747 1.1017695 1 1 1
-5.4339395 5.2183747 1.1767695 2 1 1
-5.4339395 5.2183747 1.2517695 2 1 1
-5.2839395 5.2183747 1.1767695 2 1 1
-5.2839395 5.2183747 1.2517695 2 1 1
-5.4339395 5.2183747 1.3267695 2 1 1
-5.4339395 5.2183747 1.4017695 2 1 2
-5.2839395 5.2183747 1.3267695 2 1 1
-5.2839395 5.2183747 1.4017695 2 1 2
-5.1339395 5.2183747 1.1767695 1 1 1
-5.1339395 5.2183747 1.2517695 1 1 1
-4.9839395 5.2183747 1.1767695 1 1 1
-4.9839395 5.2183747 1.2517695 1 1 1
-5.1339395 5.2183747 1.3267695 1 1 1
-5.1339395 5.2183747 1.4017695 1 1 2
-4.9839395 5.2183747 1.3267695 1 1 1
-4.9839395 5.2183747 1.4017695 1 1 2
-5.4339395 5.2183747 1.4767695 2 1 2
-5.4339395 5.2183747 1.5517695 2 1 2
-5.2839395 5.2183747 1.4767695 2 1 2
-5.2839395 5.2183747 1.5517695 2 1 2
-5.4339395 5.2183747 1.6267695 2 1 2
-5.4339395 5.2183747 1.7017695 2 1 2
-5.2839395 5.2183747 1.6267695 2 1 2
-5.2839395 5.2183747 1.7017695 2 1 2
-5.1339395 5.2183747 1.4767695 1 1 2
-5.1339395 5.2183747 1.5517695 1 1 2
-4.9839395 5.2183747 1.4767695 1 1 2
-4.9839395 5.2183747 1.5517695 1 1 2
-5.1339395 5.2183747 1.6267695 1 1 2
-5.1339395 5.2183747 1.7017695 1 1 2
-4.9839395 5.2183747 1.6267695 1 1 2
-4.9839395 5.2183747 1.7017695 1 1 2
-4.8339395 5.2183747 1.1767695 1 1 1
-4.8339395 5.2183747 1.2517695 1 1 1
-4.6839395 5.2183747 1.1767695 1 1 1
-4.6839395 5.2183747 1.2517695 1 1 1
-4.8339395 5.2183747 1.3267695 1 1 1
-4.8339395 5.2183747 1.4017695 1 1 2
-4.6839395 5.2183747 1.3267695 1 1 1
-4.6839395 5.2183747 1.4017695 1 1 2
-4.5339395 5.2183747 1.1767695 1 1 1
-4.5339395 5.2183747 1.2517695 1 1 1
-4.3839395 5.2183747 1.1767695 1 1 1
-4.3839395 5.2183747 1.2517695 1 1 1
-4.5339395 5.2183747 1.3267695 1 1 1
-4.5339395 5.2183747 1.4017695 1 1 2
-4.3839395 5.2183747 1.3267695 1 1 1
-4.3839395 5.2183747 1.4017695 1 1 2
-4.8339395 5.2183747 1.4767695 1 1 2
-4.8339395 5.2183747 1.5517695 1 1 2
-4.6839395 5.2183747 1.4767695 1 1 2
-4.6839395 5.2183747 1.5517695 1 1 2
-4.8339395 5.2183747 1.6267695 1 1 2
-4.8339395 5.2183747 1.7017695 1 1 2
-4.6839395 5.2183747 1.6267695 1 1 2
-4.6839395 5.2183747 1.7017695 1 1 2
-4.5339395 5.2183747 1.4767695 1 1 2
-4.5339395 5.2183747 1.5517695 1 1 2
-4.3839395 5.2183747 1.4767695 1 1 2
-4.3839395 5.2183747 1.5517695 1 1 2
-4.5339395 5.2183747 1.6267695 1 1 2
-4.5339395 5.2183747 1.7017695 1 1 2
-4.3839395 5.2183747 1.6267695 1 1 2
-4.3839395 5.2183747 1.7017695 1 1 2
-4.2339395 5.2183747 0.5767695 1 1 1
-4.2339395 5.2183747 0.6517695 1 1 1
-4.0839395 5.2183747 0.5767695 0 1 1
-4.0839395 5.2183747 0.6517695 0 1 1
-4.2339395 5.2183747 0.7267695 1 1 1
-4.2339395 5.2183747 0.8017695 1 1 1
-4.0839395 5.2183747 0.7267695 0 1 1
-4.0839395 5.2183747 0.8017695 0 1 1
-3.9339395 5.2183747 0.5767695 0 1 1
-3.9339395 5.2183747 0.6517695 0 1 1
-3.7839395 5.2183747 0.5767695 0 1 1
-3.7839395 5.2183747 0.6517695 0 1 1
-3.9339395 5.2183747 0.7267695 0 1 1
-3.9339395 5.2183747 0.8017695 0 1 1
-3.7839395 5.2183747 0.7267695 0 1 1
-3.7839395 5.2183747 0.8017695 0 1 1
-4.2339395 5.2183747 0.8767695 1 1 1
-4.2339395 5.2183747 0.9517695 1 1 1
-4.0839395 5.2183747 0.8767695 0 1 1
-4.0839395 5.2183747 0.9517695 0 1 1
-4.2339395 5.2183747 1.0267695 1 1 1
-4.2339395 5.2183747 1.1017695 1 1 1
-4.0839395 5.2183747 1.0267695 0 1 1
-4.0839395 5.2183747 1.1017695 0 1 1
-3.9339395 5.2183747 0.8767695 0 1 1
-3.9339395 5.2183747 0.9517695 0 1 1
-3.7839395 5.2183747 0.8767695 0 1 1
-3.7839395 5.2183747 0.9517695 0 1 1
-3.9339395 5.2183747 1.0267695 0 1 1
-3.9339395 5.2183747 1.1017695 0 1 1
-3.7839395 5.2183747 1.0267695 0 1 1
-3.7839395 5.2183747 1.1017695 0 1 1
-3.6339395 5.2183747 0.5767695 0 1 1
-3.6339395 5.2183747 0.6517695 0 1 1
-3.4839395 5.2183747 0.5767695 0 1 1
-3.4839395 5.2183747 0.6517695 0 1 1
-3.6339395 5.2183747 0.7267695 0 1 1
-3.6339395 5.2183747 0.8017695 0 1 1
-3.4839395 5.2183747 0.7267695 0 1 1
-3.4839395 5.2183747 0.8017695 0 1 1
-3.3339395 5.2183747 0.5767695 0 1 1
-3.3339395 5.2183747 0.6517695 0 1 1
-3.1839395 5.2183747 0.5767695 0 1 1
-3.1839395 5.2183747 0.6517695 0 1 1
-3.3339395 5.2183747 0.7267695 0 1 1
-3.3339395 5.2183747 0.8017695 0 1 1
-3.1839395 5.2183747 0.7267695 0 1 1
-3.1839395 5.2183747 0.8017695 0 1 1
-3.6339395 5.2183747 0.8767695 0 1 1
-3.6339395 5.2183747 0.9517695 0 1 1
-3.4839395 5.2183747 0.8767695 0 1 1
-3.4839395 5.2183747 0.9517695 0 1 1
-3.6339395 5.2183747 1.0267695 0 1 1
-3.6339395 5.2183747 1.1017695 0 1 1
-3.4839395 5.2183747 1.0267695 0 1 1
-3.4839395 5.2183747 1.1017695 0 1 1
-3.3339395 5.2183747 0.8767695 0 1 1
-3.3339395 5.2183747 0.9517695 0 1 1
-3.1839395 5.2183747 0.8767695 0 1 1
-3.1839395 5.2183747 0.9517695 0 1 1
-3.3339395 5.2183747 1.0267695 0 1 1
-3.3339395 5.2183747 1.1017695 0 1 1
-3.1839395 5.2183747 1.0267695 0 1 1
-3.1839395 5.2183747 1.1017695 0 1 1
-4.2339395 5.2183747 1.1767695 1 1 1
-4.2339395 5.2183747 1.2517695 1 1 1
-4.0839395 5.2183747 1.1767695 0 1 1
-4.0839395 5.2183747 1.2517695 0 1 1
-4.2339395 5.2183747 1.3267695 1 1 1
-4.2339395 5.2183747 1.4017695 1 1 2
-4.0839395 5.2183747 1.3267695 0 1 1
-4.0839395 5.2183747 1.4017695 0 1 2
-3.9339395 5.2183747 1.1767695 0 1 1
-3.9339395 5.2183747 1.2517695 0 1 1
-3.7839395 5.2183747 1.1767695 0 1 1
-3.7839395 5.2183747 1.2517695 0 1 1
-3.9339395 5.2183747 1.3267695 0 1 1
-3.9339395 5.2183747 1.4017695 0 1 2
-3.7839395 5.2183747 1.3267695 0 1 1
-3.7839395 5.2183747 1.4017695 0 1 2
-4.2339395 5.2183747 1.4767695 1 1 2
-4.2339395 5.2183747 1.5517695 1 1 2
-4.0839395 5.2183747 1.4767695 0 1 2
-4.0839395 5.2183747 1.5517695 0 1 2
-4.2339395 5.2183747 1.6267695 1 1 2
-4.2339395 5.2183747 1.7017695 1 1 2
-4.0839395 5.2183747 1.6267695 0 1 2
-4.0839395 5.2183747 1.7017695 0 1 2
-3.9339395 5.2183747 1.4767695 0 1 2
-3.9339395 5.2183747 1.5517695 0 1 2
-3.7839395 5.2183747 1.4767695 0 1 2
-3.7839395 5.2183747 1.5517695 0 1 2
-3.9339395 5.2183747 1.6267695 0 1 2
-3.9339395 5.2183747 1.7017695 0 1 2
-3.7839395 5.2183747 1.6267695 0 1 2
-3.7839395 5.2183747 1.7017695 0 1 2
-3.6339395 5.2183747 1.1767695 0 1 1
-3.6339395 5.2183747 1.2517695 0 1 1
-3.4839395 5.2183747 1.1767695 0 1 1
-3.4839395 5.2183747 1.2517695 0 1 1
-3.6339395 5.2183747 1.3267695 0 1 1
-3.6339395 5.2183747 1.4017695 0 1 2
-3.4839395 5.2183747 1.3267695 0 1 1
-3.4839395 5.2183747 1.4017695 0 1 2
-3.3339395 5.2183747 1.1767695 0 1 1
-3.3339395 5.2183747 1.2517695 0 1 1
-3.1839395 5.2183747 1.1767695 0 1 1
-3.1839395 5.2183747 1.2517695 0 1 1
-3.3339395 5.2183747 1.3267695 0 1 1
-3.3339395 5.2183747 1.4017695 0 1 2
-3.1839395 5.2183747 1.3267695 0 1 1
-3.1839395 5.2183747 1.4017695 0 1 2
-3.6339395 5.2183747 1.4767695 0 1 2
-3.6339395 5.2183747 1.5517695 0 1 2
-3.4839395 5.2183747 1.4767695 0 1 2
-3.4839395 5.2183747 1.5517695 0 1 2
-3.6339395 5.2183747 1.6267695 0 1 2
-3.6339395 5.2183747 1.7017695 0 1 2
-3.4839395 5.2183747 1.6267695 0 1 2
-3.4839395 5.2183747 1.7017695 0 1 2
-3.3339395 5.2183747 1.4767695 0 1 2
-3.3339395 5.2183747 1.5517695 0 1 2
-3.1839395 5.2183747 1.4767695 0 1 2
-3.1839395 5.2183747 1.5517695 0 1 2
-3.3339395 5.2183747 1.6267695 0 1 2
-3.3339395 5.2183747 1.7017695 0 1 2
-3.1839395 5.2183747 1.6267695 0 1 2
-3.1839395 5.2183747 1.7017695 0 1 2
-7.8339395 5.2183747 1.7767695 4 1 2
-7.8339395 5.2183747 1.8517695 4 1 2
-7.6839395 5.2183747 1.7767695 4 1 2
-7.6839395 5.2183747 1.8517695 4 1 2
-7.5339395 5.2183747 1.7767695 4 1 2
-7.5339395 5.2183747 1.8517695 4 1 2
-7.3839395 5.2183747 1.7767695 4 1 2
-7.3839395 5.2183747 1.8517695 4 1 2
-7.2339395 5.2183747 1.7767695 4 1 2
-7.2339395 5.2183747 1.8517695 4 1 2
-7.0839395 5.2183747 1.7767695 3 1 2
-7.0839395 5.2183747 1.8517695 3 1 2
-6.9339395 5.2183747 1.7767695 3 1 2
-6.9339395 5.2183747 1.8517695 3 1 2
-6.7839395 5.2183747 1.7767695 3 1 2
-6.7839395 5.2183747 1.8517695 3 1 2
-6.6339395 5.2183747 1.7767695 3 1 2
-6.6339395 5.2183747 1.8517695 3 1 2
-6.4839395 5.2183747 1.7767695 3 1 2
-6.4839395 5.2183747 1.8517695 3 1 2
-6.3339395 5.2183747 1.7767695 3 1 2
-6.3339395 5.2183747 1.8517695 3 1 2
-6.1839395 5.2183747 1.7767695 3 1 2
-6.1839395 5.2183747 1.8517695 3 1 2
-6.0339395 5.2183747 1.7767695 2 1 2
-6.0339395 5.2183747 1.8517695 2 1 2
-5.8839395 5.2183747 1.7767695 2 1 2
-5.8839395 5.2183747 1.8517695 2 1 2
-5.7339395 5.2183747 1.7767695 2 1 2
-5.7339395 5.2183747 1.8517695 2 1 2
-5.5839395 5.2183747 1.7767695 2 1 2
-5.5839395 5.2183747 1.8517695 2 1 2
-5.4339395 5.2183747 1.7767695 2 1 2
-5.4339395 5.2183747 1.8517695 2 1 2
-5.2839395 5.2183747 1.7767695 2 1 2
-5.2839395 5.2183747 1.8517695 2 1 2
-5.1339395 5.2183747 1.7767695 1 1 2
-5.1339395 5.2183747 1.8517695 1 1 2
-4.9839395 5.2183747 1.7767695 1 1 2
-4.9839395 5.2183747 1.8517695 1 1 2
-4.8339395 5.2183747 1.7767695 1 1 2
-4.8339395 5.2183747 1.8517695 1 1 2
-4.6839395 5.2183747 1.7767695 1 1 2
-4.6839395 5.2183747 1.8517695 1 1 2
-4.5339395 5.2183747 1.7767695 1 1 2
-4.5339395 5.2183747 1.8517695 1 1 2
-4.3839395 5.2183747 1.7767695 1 1 2
-4.3839395 5.2183747 1.8517695 1 1 2
-4.2339395 5.2183747 1.7767695 1 1 2
-4.2339395 5.2183747 1.8517695 1 1 2
-4.0839395 5.2183747 1.7767695 0 1 2
-4.0839395 5.2183747 1.8517695 0 1 2
-3.9339395 5.2183747 1.7767695 0 1 2
-3.9339395 5.2183747 1.8517695 0 1 2
-3.7839395 5.2183747 1.7767695 0 1 2
-3.7839395 5.2183747 1.8517695 0 1 2
-3.6339395 5.2183747 1.7767695 0 1 2
-3.6339395 5.2183747 1.8517695 0 1 2
-3.4839395 5.2183747 1.7767695 0 1 2
-3.4839395 5.2183747 1.8517695 0 1 2
-3.3339395 5.2183747 1.7767695 0 1 2
-3.3339395 5.2183747 1.8517695 0 1 2
-3.1839395 5.2183747 1.7767695 0 1 2
-3.1839395 5.2183747 1.8517695 0 1 2
-2.2089395 4.0183747 -0.6232305 0 0 0
-2.2089395 4.0933747 -0.6232305 0 0 0
-0.9339395 4.6183747 -0.6232305 0 0 0
-0.7839395 4.6933747 -0.6232305 0 1 0
-0.7089395 4.7683747 -0.6232305 0 1 0
-2.9589395 5.2183747 -0.6232305 0 1 0
-2.9589395 5.2183747 -0.5482305 0 1 0
-2.8089395 5.2183747 -0.6232305 0 1 0
-2.8089395 5.2183747 -0.5482305 0 1 0
-2.9589395 5.2183747 -0.4732305 0 1 0
-2.9589395 5.2183747 -0.3982305 0 1 0
-2.8089395 5.2183747 -0.4732305 0 1 0
-2.8089395 5.2183747 -0.3982305 0 1 0
-2.6589395 5.2183747 -0.6232305 0 1 0
-2.6589395 5.2183747 -0.5482305 0 1 0
-2.5089395 5.2183747 -0.6232305 0 1 0
-2.5089395 5.2183747 -0.5482305 0 1 0
-2.6589395 5.2183747 -0.4732305 0 1 0
-2.6589395 5.2183747 -0.3982305 0 1 0
-2.5089395 5.2183747 -0.4732305 0 1 0
-2.5089395 5.2183747 -0.3982305 0 1 0
-2.9589395 5.2183747 -0.3232305 0 1 0
-2.9589395 5.2183747 -0.2482305 0 1 0
-2.8089395 5.2183747 -0.3232305 0 1 0
-2.8089395 5.2183747 -0.2482305 0 1 0
-2.9589395 5.2183747 -0.1732305 0 1 0
-2.9589395 5.2183747 -0.0982305 0 1 0
-2.8089395 5.2183747 -0.1732305 0 1 0
-2.8089395 5.2183747 -0.0982305 0 1 0
-2.6589395 5.2183747 -0.3232305 0 1 0
-2.6589395 5.2183747 -0.2482305 0 1 0
-2.5089395 5.2183747 -0.3232305 0 1 0
-2.5089395 5.2183747 -0.2482305 0 1 0
-2.6589395 5.2183747 -0.1732305 0 1 0
-2.6589395 5.2183747 -0.0982305 0 1 0
-2.5089395 5.2183747 -0.1732305 0 1 0
-2.5089395 5.2183747 -0.0982305 0 1 0
-2.3589395 5.2183747 -0.6232305 0 1 0
-2.3589395 5.2183747 -0.5482305 0 1 0
-2.2089395 5.2183747 -0.6232305 0 1 0
-2.2089395 5.2183747 -0.5482305 0 1 0
-2.3589395 5.2183747 -0.4732305 0 1 0
-2.3589395 5.2183747 -0.3982305 0 1 0
-2.2089395 5.2183747 -0.4732305 0 1 0
-2.2089395 5.2183747 -0.3982305 0 1 0
-2.0589395 5.2183747 -0.6232305 0 1 0
-2.0589395 5.2183747 -0.5482305 0 1 0
-1.9089395 5.2183747 -0.6232305 0 1 0
-1.9089395 5.2183747 -0.5482305 0 1 0
-2.0589395 5.2183747 -0.4732305 0 1 0
-2.0589395 5.2183747 -0.3982305 0 1 0
-1.9089395 5.2183747 -0.4732305 0 1 0
-1.9089395 5.2183747 -0.3982305 0 1 0
-2.3589395 5.2183747 -0.3232305 0 1 0
-2.3589395 5.2183747 -0.2482305 0 1 0
-2.2089395 5.2183747 -0.3232305 0 1 0
-2.2089395 5.2183747 -0.2482305 0 1 0
-2.3589395 5.2183747 -0.1732305 0 1 0
-2.3589395 5.2183747 -0.0982305 0 1 0
-2.2089395 5.2183747 -0.1732305 0 1 0
-2.2089395 5.2183747 -0.0982305 0 1 0
-2.0589395 5.2183747 -0.3232305 0 1 0
-2.0589395 5.2183747 -0.2482305 0 1 0
-1.9089395 5.2183747 -0.3232305 0 1 0
-1.9089395 5.2183747 -0.2482305 0 1 0
-2.0589395 5.2183747 -0.1732305 0 1 0
-2.0589395 5.2183747 -0.0982305 0 1 0
-1.9089395 5.2183747 -0.1732305 0 1 0
-1.9089395 5.2183747 -0.0982305 0 1 0
-2.9589395 5.2183747 -0.0232305 0 1 0
-2.9589395 5.2183747 0.0517695 0 1 0
-2.8089395 5.2183747 -0.0232305 0 1 0
-2.8089395 5.2183747 0.0517695 0 1 0
-2.9589395 5.2183747 0.1267695 0 1 0
-2.9589395 5.2183747 0.2017695 0 1 0
-2.8089395 5.2183747 0.1267695 0 1 0
-2.8089395 5.2183747 0.2017695 0 1 0
-2.6589395 5.2183747 -0.0232305 0 1 0
-2.6589395 5.2183747 0.0517695 0 1 0
-2.5089395 5.2183747 -0.0232305 0 1 0
-2.5089395 5.2183747 0.0517695 0 1 0
-2.6589395 5.2183747 0.1267695 0 1 0
-2.6589395 5.2183747 0.2017695 0 1 0
-2.5089395 5.2183747 0.1267695 0 1 0
-2.5089395 5.2183747 0.2017695 0 1 0
-2.9589395 5.2183747 0.2767695 0 1 1
-2.9589395 5.2183747 0.3517695 0 1 0
-2.8089395 5.2183747 0.2767695 0 1 1
-2.8089395 5.2183747 0.3517695 0 1 1
-2.9589395 5.2183747 0.4267695 0 1 1
-2.9589395 5.2183747 0.5017695 0 1 1
-2.8089395 5.2183747 0.4267695 0 1 1
-2.8089395 5.2183747 0.5017695 0 1 0
-2.6589395 5.2183747 0.2767695 0 1 1
-2.6589395 5.2183747 0.3517695 0 1 0
-2.5089395 5.2183747 0.2767695 0 1 1
-2.5089395 5.2183747 0.3517695 0 1 1
-2.6589395 5.2183747 0.4267695 0 1 1
-2.6589395 5.2183747 0.5017695 0 1 1
-2.5089395 5.2183747 0.4267695 0 1 1
-2.5089395 5.2183747 0.5017695 0 1 0
-2.3589395 5.2183747 -0.0232305 0 1 0
-2.3589395 5.2183747 0.0517695 0 1 0
-2.2089395 5.2183747 -0.0232305 0 1 0
-2.2089395 5.2183747 0.0517695 0 1 0
-2.3589395 5.2183747 0.1267695 0 1 0
-2.3589395 5.2183747 0.2017695 0 1 0
-2.2089395 5.2183747 0.1267695 0 1 0
-2.2089395 5.2183747 0.2017695 0 1 0
-2.0589395 5.2183747 -0.0232305 0 1 0
-2.0589395 5.2183747 0.0517695 0 1 0
-1.9089395 5.2183747 -0.0232305 0 1 0
-1.9089395 5.2183747 0.0517695 0 1 0
-2.0589395 5.2183747 0.1267695 0 1 0
-2.0589395 5.2183747 0.2017695 0 1 0
-1.9089395 5.2183747 0.1267695 0 1 0
-1.9089395 5.2183747 0.2017695 0 1 0
-2.3589395 5.2183747 0.2767695 0 1 1
-2.3589395 5.2183747 0.3517695 0 1 0
-2.2089395 5.2183747 0.2767695 0 1 1
-2.2089395 5.2183747 0.3517695 0 1 1
-2.3589395 5.2183747 0.4267695 0 1 1
-2.3589395 5.2183747 0.5017695 0 1 1
-2.2089395 5.2183747 0.4267695 0 1 1
-2.2089395 5.2183747 0.5017695 0 1 0
-2.0589395 5.2183747 0.2767695 0 1 1
-2.0589395 5.2183747 0.3517695 0 1 0
-1.9089395 5.2183747 0.2767695 0 1 1
-1.9089395 5.2183747 0.3517695 0 1 1
-2.0589395 5.2183747 0.4267695 0 1 1
-2.0589395 5.2183747 0.5017695 0 1 1
-1.9089395 5.2183747 0.4267695 0 1 1
-1.9089395 5.2183747 0.5017695 0 1 0
-1.7589395 5.2183747 -0.6232305 0 1 0
-1.7589395 5.2183747 -0.5482305 0 1 0
-1.6089395 5.2183747 -0.6232305 0 1 0
-1.6089395 5.2183747 -0.5482305 0 1 0
-1.7589395 5.2183747 -0.4732305 0 1 0
-1.7589395 5.2183747 -0.3982305 0 1 0
-1.6089395 5.2183747 -0.4732305 0 1 0
-1.6089395 5.2183747 -0.3982305 0 1 0
-1.4589395 5.2183747 -0.6232305 0 1 0
-1.4589395 5.2183747 -0.5482305 0 1 0
-1.3089395 5.2183747 -0.6232305 0 1 0
-1.3089395 5.2183747 -0.5482305 0 1 0
-1.4589395 5.2183747 -0.4732305 0 1 0
-1.4589395 5.2183747 -0.3982305 0 1 0
-1.3089395 5.2183747 -0.4732305 0 1 0
-1.3089395 5.2183747 -0.3982305 0 1 0
-1.7589395 5.2183747 -0.3232305 0 1 0
-1.7589395 5.2183747 -0.2482305 0 1 0
-1.6089395 5.2183747 -0.3232305 0 1 0
-1.6089395 5.2183747 -0.2482305 0 1 0
-1.7589395 5.2183747 -0.1732305 0 1 0
-1.7589395 5.2183747 -0.0982305 0 1 0
-1.6089395 5.2183747 -0.1732305 0 1 0
-1.6089395 5.2183747 -0.0982305 0 1 0
-1.4589395 5.2183747 -0.3232305 0 1 0
-1.4589395 5.2183747 -0.2482305 0 1 0
-1.3089395 5.2183747 -0.3232305 0 1 0
-1.3089395 5.2183747 -0.2482305 0 1 0
-1.4589395 5.2183747 -0.1732305 0 1 0
-1.4589395 5.2183747 -0.0982305 0 1 0
-1.3089395 5.2183747 -0.1732305 0 1 0
-1.3089395 5.2183747 -0.0982305 0 1 0
-1.0839395 5.0683747 -0.6232305 0 1 0
-1.1589395 5.2183747 -0.6232305 0 1 0
-1.1589395 5.2183747 -0.5482305 0 1 0
-1.0089395 5.2183747 -0.6232305 0 1 0
-1.0089395 5.2183747 -0.5482305 0 1 0
-1.1589395 5.2183747 -0.4732305 0 1 0
-1.1589395 5.2183747 -0.3982305 0 1 0
-1.0089395 5.2183747 -0.4732305 0 1 0
-1.0089395 5.2183747 -0.3982305 0 1 0
-0.8589395 5.2183747 -0.6232305 0 1 0
-0.8589395 5.2183747 -0.5482305 0 1 0
-0.7089395 5.2183747 -0.6232305 0 1 0
-0.7089395 5.2183747 -0.5482305 0 1 0
-0.8589395 5.2183747 -0.4732305 0 1 0
-0.8589395 5.2183747 -0.3982305 0 1 0
-0.7089395 5.2183747 -0.4732305 0 1 0
-0.7089395 5.2183747 -0.3982305 0 1 0
-1.1589395 5.2183747 -0.3232305 0 1 0
-1.1589395 5.2183747 -0.2482305 0 1 0
-1.0089395 5.2183747 -0.3232305 0 1 0
-1.0089395 5.2183747 -0.2482305 0 1 0
-1.1589395 5.2183747 -0.1732305 0 1 0
-1.1589395 5.2183747 -0.0982305 0 1 0
-1.0089395 5.2183747 -0.1732305 0 1 0
-1.0089395 5.2183747 -0.0982305 0 1 0
-0.8589395 5.2183747 -0.3232305 0 1 0
-0.8589395 5.2183747 -0.2482305 0 1 0
-0.7089395 5.2183747 -0.3232305 0 1 0
-0.7089395 5.2183747 -0.2482305 0 1 0
-0.8589395 5.2183747 -0.1732305 0 1 0
-0.8589395 5.2183747 -0.0982305 0 1 0
-0.7089395 5.2183747 -0.1732305 0 1 0
-0.7089395 5.2183747 -0.0982305 0 1 0
-1.7589395 5.2183747 -0.0232305 0 1 0
-1.7589395 5.2183747 0.0517695 0 1 0
-1.6089395 5.2183747 -0.0232305 0 1 0
-1.6089395 5.2183747 0.0517695 0 1 0
-1.7589395 5.2183747 0.1267695 0 1 0
-1.7589395 5.2183747 0.2017695 0 1 0
-1.6089395 5.2183747 0.1267695 0 1 0
-1.6089395 5.2183747 0.2017695 0 1 0
-1.4589395 5.2183747 -0.0232305 0 1 0
-1.4589395 5.2183747 0.0517695 0 1 0
-1.3089395 5.2183747 -0.0232305 0 1 0
-1.3089395 5.2183747 0.0517695 0 1 0
-1.4589395 5.2183747 0.1267695 0 1 0
-1.4589395 5.2183747 0.2017695 0 1 0
-1.3089395 5.2183747 0.1267695 0 1 0
-1.3089395 5.2183747 0.2017695 0 1 0
-1.7589395 5.2183747 0.2767695 0 1 1
-1.7589395 5.2183747 0.3517695 0 1 0
-1.6089395 5.2183747 0.2767695 0 1 1
-1.6089395 5.2183747 0.3517695 0 1 1
-1.7589395 5.2183747 0.4267695 0 1 1
-1.7589395 5.2183747 0.5017695 0 1 1
-1.6089395 5.2183747 0.4267695 0 1 1
-1.6089395 5.2183747 0.5017695 0 1 0
-1.4589395 5.2183747 0.2767695 0 1 1
-1.4589395 5.2183747 0.3517695 0 1 0
-1.3089395 5.2183747 0.2767695 0 1 1
-1.3089395 5.2183747 0.3517695 0 1 1
-1.4589395 5.2183747 0.4267695 0 1 1
-1.4589395 5.2183747 0.5017695 0 1 1
-1.3089395 5.2183747 0.4267695 0 1 1
-1.3089395 5.2183747 0.5017695 0 1 0
-1.1589395 5.2183747 -0.0232305 0 1 0
-1.1589395 5.2183747 0.0517695 0 1 0
-1.0089395 5.2183747 -0.0232305 0 1 0
-1.0089395 5.2183747 0.0517695 0 1 0
-1.1589395 5.2183747 0.1267695 0 1 0
-1.1589395 5.2183747 0.2017695 0 1 0
-1.0089395 5.2183747 0.1267695 0 1 0
-1.0089395 5.2183747 0.2017695 0 1 0
-0.8589395 5.2183747 -0.0232305 0 1 0
-0.8589395 5.2183747 0.0517695 0 1 0
-0.7089395 5.2183747 -0.0232305 0 1 0
-0.7089395 5.2183747 0.0517695 0 1 0
-0.8589395 5.2183747 0.1267695 0 1 0
-0.8589395 5.2183747 0.2017695 0 1 0
-0.7089395 5.2183747 0.1267695 0 1 0
-0.7089395 5.2183747 0.2017695 0 1 0
-1.1589395 5.2183747 0.2767695 0 1 1
-1.1589395 5.2183747 0.3517695 0 1 0
-1.0089395 5.2183747 0.2767695 0 1 1
-1.0089395 5.2183747 0.3517695 0 1 1
-1.1589395 5.2183747 0.4267695 0 1 1
-1.1589395 5.2183747 0.5017695 0 1 1
-1.0089395 5.2183747 0.4267695 0 1 1
-1.0089395 5.2183747 0.5017695 0 1 0
-0.8589395 5.2183747 0.2767695 0 1 1
-0.8589395 5.2183747 0.3517695 0 1 0
-0.7089395 5.2183747 0.2767695 0 1 1
-0.7089395 5.2183747 0.3517695 0 1 1
-0.8589395 5.2183747 0.4267695 0 1 1
-0.8589395 5.2183747 0.5017695 0 1 1
-0.7089395 5.2183747 0.4267695 0 1 1
-0.7089395 5.2183747 0.5017695 0 1 1
-2.9589395 5.2183747 0.5767695 0 1 1
-2.9589395 5.2183747 0.6517695 0 1 1
-2.8089395 5.2183747 0.5767695 0 1 1
-2.8089395 5.2183747 0.6517695 0 1 1
-2.9589395 5.2183747 0.7267695 0 1 1
-2.9589395 5.2183747 0.8017695 0 1 1
-2.8089395 5.2183747 0.7267695 0 1 1
-2.8089395 5.2183747 0.8017695 0 1 1
-2.6589395 5.2183747 0.5767695 0 1 1
-2.6589395 5.2183747 0.6517695 0 1 1
-2.5089395 5.2183747 0.5767695 0 1 1
-2.5089395 5.2183747 0.6517695 0 1 1
-2.6589395 5.2183747 0.7267695 0 1 1
-2.6589395 5.2183747 0.8017695 0 1 1
-2.5089395 5.2183747 0.7267695 0 1 1
-2.5089395 5.2183747 0.8017695 0 1 1
-2.9589395 5.2183747 0.8767695 0 1 1
-2.9589395 5.2183747 0.9517695 0 1 1
-2.8089395 5.2183747 0.8767695 0 1 1
-2.8089395 5.2183747 0.9517695 0 1 1
-2.9589395 5.2183747 1.0267695 0 1 1
-2.9589395 5.2183747 1.1017695 0 1 1
-2.8089395 5.2183747 1.0267695 0 1 1
-2.8089395 5.2183747 1.1017695 0 1 1
-2.6589395 5.2183747 0.8767695 0 1 1
-2.6589395 5.2183747 0.9517695 0 1 1
-2.5089395 5.2183747 0.8767695 0 1 1
-2.5089395 5.2183747 0.9517695 0 1 1
-2.6589395 5.2183747 1.0267695 0 1 1
-2.6589395 5.2183747 1.1017695 0 1 1
-2.5089395 5.2183747 1.0267695 0 1 1
-2.5089395 5.2183747 1.1017695 0 1 1
-2.3589395 5.2183747 0.5767695 0 1 1
-2.3589395 5.2183747 0.6517695 0 1 1
-2.2089395 5.2183747 0.5767695 0 1 1
-2.2089395 5.2183747 0.6517695 0 1 1
-2.3589395 5.2183747 0.7267695 0 1 1
-2.3589395 5.2183747 0.8017695 0 1 1
-2.2089395 5.2183747 0.7267695 0 1 1
-2.2089395 5.2183747 0.8017695 0 1 1
-2.0589395 5.2183747 0.5767695 0 1 1
-2.0589395 5.2183747 0.6517695 0 1 1
-1.9089395 5.2183747 0.5767695 0 1 1
-1.9089395 5.2183747 0.6517695 0 1 1
-2.0589395 5.2183747 0.7267695 0 1 1
-2.0589395 5.2183747 0.8017695 0 1 1
-1.9089395 5.2183747 0.7267695 0 1 1
-1.9089395 5.2183747 0.8017695 0 1 1
-2.3589395 5.2183747 0.8767695 0 1 1
-2.3589395 5.2183747 0.9517695 0 1 1
-2.2089395 5.2183747 0.8767695 0 1 1
-2.2089395 5.2183747 0.9517695 0 1 1
-2.3589395 5.2183747 1.0267695 0 1 1
-2.3589395 5.2183747 1.1017695 0 1 1
-2.2089395 5.2183747 1.0267695 0 1 1
-2.2089395 5.2183747 1.1017695 0 1 1
-2.0589395 5.2183747 0.8767695 0 1 1
-2.0589395 5.2183747 0.9517695 0 1 1
-1.9089395 5.2183747 0.8767695 0 1 1
-1.9089395 5.2183747 0.9517695 0 1 1
-2.0589395 5.2183747 1.0267695 0 1 1
-2.0589395 5.2183747 1.1017695 0 1 1
-1.9089395 5.2183747 1.0267695 0 1 1
-1.9089395 5.2183747 1.1017695 0 1 1
-2.9589395 5.2183747 1.1767695 0 1 1
-2.9589395 5.2183747 1.2517695 0 1 1
-2.8089395 5.2183747 1.1767695 0 1 1
-2.8089395 5.2183747 1.2517695 0 1 1
-2.9589395 5.2183747 1.3267695 0 1 2
-2.9589395 5.2183747 1.4017695 0 1 1
-2.8089395 5.2183747 1.3267695 0 1 2
-2.8089395 5.2183747 1.4017695 0 1 1
-2.6589395 5.2183747 1.1767695 0 1 1
-2.6589395 5.2183747 1.2517695 0 1 1
-2.5089395 5.2183747 1.1767695 0 1 1
-2.5089395 5.2183747 1.2517695 0 1 1
-2.6589395 5.2183747 1.3267695 0 1 2
-2.6589395 5.2183747 1.4017695 0 1 1
-2.5089395 5.2183747 1.3267695 0 1 2
-2.5089395 5.2183747 1.4017695 0 1 2
-2.9589395 5.2183747 1.4767695 0 1 2
-2.9589395 5.2183747 1.5517695 0 1 2
-2.8089395 5.2183747 1.4767695 0 1 2
-2.8089395 5.2183747 1.5517695 0 1 2
-2.9589395 5.2183747 1.6267695 0 1 2
-2.9589395 5.2183747 1.7017695 0 1 2
-2.8089395 5.2183747 1.6267695 0 1 2
-2.8089395 5.2183747 1.7017695 0 1 2
-2.6589395 5.2183747 1.4767695 0 1 2
-2.6589395 5.2183747 1.5517695 0 1 2
-2.5089395 5.2183747 1.4767695 0 1 2
-2.5089395 5.2183747 1.5517695 0 1 2
-2.6589395 5.2183747 1.6267695 0 1 2
-2.6589395 5.2183747 1.7017695 0 1 2
-2.5089395 5.2183747 1.6267695 0 1 2
-2.5089395 5.2183747 1.7017695 0 1 1
-2.3589395 5.2183747 1.1767695 0 1 1
-2.3589395 5.2183747 1.2517695 0 1 1
-2.2089395 5.2183747 1.1767695 0 1 1
-2.2089395 5.2183747 1.2517695 0 1 1
-2.3589395 5.2183747 1.3267695 0 1 2
-2.3589395 5.2183747 1.4017695 0 1 1
-2.2089395 5.2183747 1.3267695 0 1 2
-2.2089395 5.2183747 1.4017695 0 1 1
-2.0589395 5.2183747 1.1767695 0 1 1
-2.0589395 5.2183747 1.2517695 0 1 1
-1.9089395 5.2183747 1.1767695 0 1 1
-1.9089395 5.2183747 1.2517695 0 1 1
-2.0589395 5.2183747 1.3267695 0 1 2
-2.0589395 5.2183747 1.4017695 0 1 1
-1.9089395 5.2183747 1.3267695 0 1 2
-1.9089395 5.2183747 1.4017695 0 1 2
-2.3589395 5.2183747 1.4767695 0 1 2
-2.3589395 5.2183747 1.5517695 0 1 2
-2.2089395 5.2183747 1.4767695 0 1 2
-2.2089395 5.2183747 1.5517695 0 1 2
-2.3589395 5.2183747 1.6267695 0 1 2
-2.3589395 5.2183747 1.7017695 0 1 2
-2.2089395 5.2183747 1.6267695 0 1 2
-2.2089395 5.2183747 1.7017695 0 1 2
-2.0589395 5.2183747 1.4767695 0 1 2
-2.0589395 5.2183747 1.5517695 0 1 2
-1.9089395 5.2183747 1.4767695 0 1 2
-1.9089395 5.2183747 1.5517695 0 1 2
-2.0589395 5.2183747 1.6267695 0 1 2
-2.0589395 5.2183747 1.7017695 0 1 2
-1.9089395 5.2183747 1.6267695 0 1 2
-1.9089395 5.2183747 1.7017695 0 1 1
-1.7589395 5.2183747 0.5767695 0 1 1
-1.7589395 5.2183747 0.6517695 0 1 1
-1.6089395 5.2183747 0.5767695 0 1 1
-1.6089395 5.2183747 0.6517695 0 1 1
-1.7589395 5.2183747 0.7267695 0 1 1
-1.7589395 5.2183747 0.8017695 0 1 1
-1.6089395 5.2183747 0.7267695 0 1 1
-1.6089395 5.2183747 0.8017695 0 1 1
-1.4589395 5.2183747 0.5767695 0 1 1
-1.4589395 5.2183747 0.6517695 0 1 1
-1.3089395 5.2183747 0.5767695 0 1 1
-1.3089395 5.2183747 0.6517695 0 1 1
-1.4589395 5.2183747 0.7267695 0 1 1
-1.4589395 5.2183747 0.8017695 0 1 1
-1.3089395 5.2183747 0.7267695 0 1 1
-1.3089395 5.2183747 0.8017695 0 1 1
-1.7589395 5.2183747 0.8767695 0 1 1
-1.7589395 5.2183747 0.9517695 0 1 1
-1.6089395 5.2183747 0.8767695 0 1 1
-1.6089395 5.2183747 0.9517695 0 1 1
-1.7589395 5.2183747 1.0267695 0 1 1
-1.7589395 5.2183747 1.1017695 0 1 1
-1.6089395 5.2183747 1.0267695 0 1 1
-1.6089395 5.2183747 1.1017695 0 1 1
-1.4589395 5.2183747 0.8767695 0 1 1
-1.4589395 5.2183747 0.9517695 0 1 1
-1.3089395 5.2183747 0.8767695 0 1 1
-1.3089395 5.2183747 0.9517695 0 1 1
-1.4589395 5.2183747 1.0267695 0 1 1
-1.4589395 5.2183747 1.1017695 0 1 1
-1.3089395 5.2183747 1.0267695 0 1 1
-1.3089395 5.2183747 1.1017695 0 1 1
-1.1589395 5.2183747 0.5767695 0 1 1
-1.1589395 5.2183747 0.6517695 0 1 1
-1.0089395 5.2183747 0.5767695 0 1 1
-1.0089395 5.2183747 0.6517695 0 1 1
-1.1589395 5.2183747 0.7267695 0 1 1
-1.1589395 5.2183747 0.8017695 0 1 1
-1.0089395 5.2183747 0.7267695 0 1 1
-1.0089395 5.2183747 0.8017695 0 1 1
-0.8589395 5.2183747 0.5767695 0 1 1
-0.8589395 5.2183747 0.6517695 0 1 1
-0.7089395 5.2183747 0.5767695 0 1 1
-0.7089395 5.2183747 0.6517695 0 1 1
-0.8589395 5.2183747 0.7267695 0 1 1
-0.8589395 5.2183747 0.8017695 0 1 1
-0.7089395 5.2183747 0.7267695 0 1 1
-0.7089395 5.2183747 0.8017695 0 1 1
-1.1589395 5.2183747 0.8767695 0 1 1
-1.1589395 5.2183747 0.9517695 0 1 1
-1.0089395 5.2183747 0.8767695 0 1 1
-1.0089395 5.2183747 0.9517695 0 1 1
-1.1589395 5.2183747 1.0267695 0 1 1
-1.1589395 5.2183747 1.1017695 0 1 1
-1.0089395 5.2183747 1.0267695 0 1 1
-1.0089395 5.2183747 1.1017695 0 1 1
-0.8589395 5.2183747 0.8767695 0 1 1
-0.8589395 5.2183747 0.9517695 0 1 1
-0.7089395 5.2183747 0.8767695 0 1 1
-0.7089395 5.2183747 0.9517695 0 1 1
-0.8589395 5.2183747 1.0267695 0 1 1
-0.8589395 5.2183747 1.1017695 0 1 1
-0.7089395 5.2183747 1.0267695 0 1 1
-0.7089395 5.2183747 1.1017695 0 1 1
-1.7589395 5.2183747 1.1767695 0 1 1
-1.7589395 5.2183747 1.2517695 0 1 1
-1.6089395 5.2183747 1.1767695 0 1 1
-1.6089395 5.2183747 1.2517695 0 1 1
-1.7589395 5.2183747 1.3267695 0 1 2
-1.7589395 5.2183747 1.4017695 0 1 1
-1.6089395 5.2183747 1.3267695 0 1 2
-1.6089395 5.2183747 1.4017695 0 1 1
-1.4589395 5.2183747 1.1767695 0 1 1
-1.4589395 5.2183747 1.2517695 0 1 1
-1.3089395 5.2183747 1.1767695 0 1 1
-1.3089395 5.2183747 1.2517695 0 1 1
-1.4589395 5.2183747 1.3267695 0 1 2
-1.4589395 5.2183747 1.4017695 0 1 1
-1.3089395 5.2183747 1.3267695 0 1 2
-1.3089395 5.2183747 1.4017695 0 1 2
-1.7589395 5.2183747 1.4767695 0 1 2
-1.7589395 5.2183747 1.5517695 0 1 2
-1.6089395 5.2183747 1.4767695 0 1 2
-1.6089395 5.2183747 1.5517695 0 1 2
-1.7589395 5.2183747 1.6267695 0 1 2
-1.6839395 5.2183747 1.6267695 0 1 2
-1.5339395 5.2183747 1.4767695 0 1 2
-1.5339395 5.2183747 1.5517695 0 1 2
-1.3839395 5.2183747 1.4767695 0 1 2
-1.3839395 5.2183747 1.5517695 0 1 1
-1.1589395 5.2183747 1.1767695 0 1 1
-1.1589395 5.2183747 1.2517695 0 1 1
-1.0089395 5.2183747 1.1767695 0 1 1
-1.0089395 5.2183747 1.2517695 0 1 1
-1.1589395 5.2183747 1.3267695 0 1 2
-1.1589395 5.2183747 1.4017695 0 1 1
-1.0089395 5.2183747 1.3267695 0 1 2
-1.0089395 5.2183747 1.4017695 0 1 1
-0.8589395 5.2183747 1.1767695 0 1 1
-0.8589395 5.2183747 1.2517695 0 1 1
-0.7089395 5.2183747 1.1767695 0 1 1
-0.7089395 5.2183747 1.2517695 0 1 1
-0.8589395 5.2183747 1.3267695 0 1 2
-0.7839395 5.2183747 1.3267695 0 1 1
-1.2339395 5.2183747 1.4767695 0 1 2
-0.4089395 4.3183747 -0.6232305 0 0 0
-0.3339395 4.3183747 -0.6232305 0 0 0
-0.1839395 4.2433747 -0.6232305 0 0 0
-0.1839395 4.3183747 -0.6232305 0 0 0
0.1910605 3.9433747 -0.6232305 0 0 0
0.1910605 4.0183747 -0.6232305 0 0 0
0.2660605 3.9433747 -0.6232305 0 0 0
0.2660605 4.0183747 -0.6232305 0 0 0
-0.0339395 4.0933747 -0.6232305 0 0 0
-0.0339395 4.1683747 -0.6232305 0 0 0
0.1160605 4.0933747 -0.6232305 0 0 0
0.1160605 4.1683747 -0.6232305 0 0 0
-0.5589395 4.4683747 -0.6232305 0 0 0
-0.4089395 4.3933747 -0.6232305 0 0 0
-0.4089395 4.4683747 -0.6232305 0 0 0
-0.6339395 4.6183747 -0.6232305 0 0 0
-0.4839395 4.5433747 -0.6232305 0 0 0
-0.4839395 4.6183747 -0.6232305 0 0 0
-0.2589395 4.3933747 -0.6232305 0 0 0
-0.1839395 4.3933747 -0.6232305 0 0 0
-0.5589395 4.7683747 -0.6232305 0 0 0
-0.4089395 4.6933747 -0.6232305 0 1 0
-0.4089395 4.7683747 -0.6232305 0 1 0
-0.4839395 4.8433747 -0.6232305 0 1 0
-0.4839395 4.9183747 -0.6232305 0 1 0
-0.3339395 4.7683747 -0.6232305 0 1 0
-0.3339395 4.8433747 -0.6232305 0 1 0
-0.3339395 4.9183747 -0.6232305 0 1 0
-0.1839395 4.8433747 -0.6232305 0 1 0
-0.1839395 4.9183747 -0.6232305 0 1 0
0.1160605 4.7683747 -0.6232305 0 1 0
-0.4839395 4.9933747 -0.6232305 0 1 0
-0.4089395 5.0683747 -0.6232305 0 1 0
-0.6339395 5.2183747 -0.5482305 0 1 0
-0.4089395 5.2183747 -0.6232305 0 1 0
-0.4089395 5.2183747 -0.5482305 0 1 0
-0.4089395 5.2183747 -0.4732305 0 1 0
-0.4089395 5.2183747 -0.3982305 0 1 0
-0.2589395 4.9933747 -0.6232305 0 1 0
-0.2589395 5.0683747 -0.6232305 0 1 0
-0.1089395 4.9933747 -0.6232305 0 1 0
-0.1089395 5.0683747 -0.6232305 0 1 0
-0.3339395 5.2183747 -0.6232305 0 1 0
-0.3339395 5.2183747 -0.5482305 0 1 0
-0.1839395 5.1433747 -0.6232305 0 1 0
-0.1839395 5.2183747 -0.6232305 0 1 0
-0.1839395 5.2183747 -0.5482305 0 1 0
-0.3339395 5.2183747 -0.4732305 0 1 0
-0.3339395 5.2183747 -0.3982305 0 1 0
-0.1839395 5.2183747 -0.4732305 0 1 0
-0.1839395 5.2183747 -0.3982305 0 1 0
-0.4839395 5.2183747 -0.3232305 0 1 0
-0.4839395 5.2183747 -0.2482305 0 1 0
-0.4839395 5.2183747 -0.1732305 0 1 0
-0.4839395 5.2183747 -0.0982305 0 1 0
-0.3339395 5.2183747 -0.3232305 0 1 0
-0.3339395 5.2183747 -0.2482305 0 1 0
-0.1839395 5.2183747 -0.3232305 0 1 0
-0.1839395 5.2183747 -0.2482305 0 1 0
-0.3339395 5.2183747 -0.1732305 0 1 0
-0.3339395 5.2183747 -0.0982305 0 1 0
-0.1839395 5.2183747 -0.1732305 0 1 0
-0.1839395 5.2183747 -0.0982305 0 1 0
-0.0339395 4.9933747 -0.6232305 0 1 0
-0.0339395 5.0683747 -0.6232305 0 1 0
0.1160605 4.9933747 -0.6232305 0 1 0
0.1910605 5.0683747 -0.6232305 0 1 0
0.0410605 5.1433747 -0.6232305 0 1 0
0.0410605 5.2183747 -0.6232305 0 1 0
0.0410605 5.2183747 -0.5482305 0 1 0
0.1910605 5.1433747 -0.6232305 0 1 0
0.1910605 5.2183747 -0.6232305 0 1 0
0.1910605 5.2183747 -0.5482305 0 1 0
0.0410605 5.2183747 -0.4732305 0 1 0
0.0410605 5.2183747 -0.3982305 0 1 0
0.1910605 5.2183747 -0.4732305 0 1 0
0.1910605 5.2183747 -0.3982305 0 1 0
0.4910605 5.0683747 -0.6232305 0 1 0
0.3410605 5.1433747 -0.6232305 0 1 0
0.3410605 5.2183747 -0.6232305 0 1 0
0.3410605 5.2183747 -0.5482305 0 1 0
0.4160605 5.2183747 -0.6232305 0 1 0
0.4160605 5.2183747 -0.5482305 0 1 0
0.2660605 5.2183747 -0.4732305 0 1 0
0.2660605 5.2183747 -0.3982305 0 1 0
0.4160605 5.2183747 -0.4732305 0 1 0
0.4160605 5.2183747 -0.3982305 0 1 0
-0.0339395 5.2183747 -0.3232305 0 1 0
-0.0339395 5.2183747 -0.2482305 0 1 0
0.1160605 5.2183747 -0.3232305 0 1 0
0.1160605 5.2183747 -0.2482305 0 1 0
-0.0339395 5.2183747 -0.1732305 0 1 0
-0.0339395 5.2183747 -0.0982305 0 1 0
0.1160605 5.2183747 -0.1732305 0 1 0
0.1160605 5.2183747 -0.0982305 0 1 0
0.2660605 5.2183747 -0.3232305 0 1 0
0.2660605 5.2183747 -0.2482305 0 1 0
0.4160605 5.2183747 -0.3232305 0 1 0
0.4160605 5.2183747 -0.2482305 0 1 0
0.2660605 5.2183747 -0.1732305 0 1 0
0.2660605 5.2183747 -0.0982305 0 1 0
0.4160605 5.2183747 -0.1732305 0 1 0
0.4160605 5.2183747 -0.0982305 0 1 0
-0.4839395 5.2183747 -0.0232305 0 1 0
-0.4839395 5.2183747 0.0517695 0 1 0
-0.4839395 5.2183747 0.1267695 0 1 0
-0.4839395 5.2183747 0.2017695 0 1 0
-0.3339395 5.2183747 -0.0232305 0 1 0
-0.3339395 5.2183747 0.0517695 0 1 0
-0.1839395 5.2183747 -0.0232305 0 1 0
-0.1839395 5.2183747 0.0517695 0 1 0
-0.3339395 5.2183747 0.1267695 0 1 0
-0.3339395 5.2183747 0.2017695 0 1 0
-0.1839395 5.2183747 0.1267695 0 1 0
-0.1839395 5.2183747 0.2017695 0 1 0
-0.4839395 5.2183747 0.2767695 0 1 0
-0.4839395 5.2183747 0.3517695 0 1 1
-0.4839395 5.2183747 0.4267695 0 1 1
-0.4839395 5.2183747 0.5017695 0 1 1
-0.3339395 5.2183747 0.2767695 0 1 0
-0.3339395 5.2183747 0.3517695 0 1 1
-0.1839395 5.2183747 0.2767695 0 1 0
-0.1839395 5.2183747 0.3517695 0 1 1
-0.3339395 5.2183747 0.4267695 0 1 1
-0.3339395 5.2183747 0.5017695 0 1 1
-0.1839395 5.2183747 0.4267695 0 1 1
-0.1839395 5.2183747 0.5017695 0 1 1
-0.0339395 5.2183747 -0.0232305 0 1 0
-0.0339395 5.2183747 0.0517695 0 1 0
0.1160605 5.2183747 -0.0232305 0 1 0
0.1160605 5.2183747 0.0517695 0 1 0
-0.0339395 5.2183747 0.1267695 0 1 0
-0.0339395 5.2183747 0.2017695 0 1 0
0.1160605 5.2183747 0.1267695 0 1 0
0.1160605 5.2183747 0.2017695 0 1 0
0.2660605 5.2183747 -0.0232305 0 1 0
0.2660605 5.2183747 0.0517695 0 1 0
0.4160605 5.2183747 -0.0232305 0 1 0
0.4160605 5.2183747 0.0517695 0 1 0
0.2660605 5.2183747 0.1267695 0 1 0
0.2660605 5.2183747 0.2017695 0 1 0
0.4160605 5.2183747 0.1267695 0 1 0
0.4160605 5.2183747 0.2017695 0 1 0
-0.0339395 5.2183747 0.2767695 0 1 0
-0.0339395 5.2183747 0.3517695 0 1 1
0.1160605 5.2183747 0.2767695 0 1 0
0.1160605 5.2183747 0.3517695 0 1 1
-0.0339395 5.2183747 0.4267695 0 1 1
-0.0339395 5.2183747 0.5017695 0 1 1
0.1160605 5.2183747 0.4267695 0 1 1
0.1160605 5.2183747 0.5017695 0 1 1
0.2660605 5.2183747 0.2767695 0 1 0
0.2660605 5.2183747 0.3517695 0 1 1
0.4160605 5.2183747 0.2767695 0 1 0
0.4160605 5.2183747 0.3517695 0 1 1
0.2660605 5.2183747 0.4267695 0 1 1
0.2660605 5.2183747 0.5017695 0 1 1
0.4160605 5.2183747 0.4267695 0 1 1
0.4160605 5.2183747 0.5017695 0 1 1
0.5660605 5.1433747 -0.6232305 0 1 0
0.5660605 5.2183747 -0.6232305 0 1 0
0.5660605 5.2183747 -0.5482305 0 1 0
0.7160605 5.2183747 -0.6232305 0 1 0
0.7160605 5.2183747 -0.5482305 0 1 0
0.5660605 5.2183747 -0.4732305 0 1 0
0.5660605 5.2183747 -0.3982305 0 1 0
0.7160605 5.2183747 -0.4732305 0 1 0
0.7160605 5.2183747 -0.3982305 0 1 0
0.8660605 5.2183747 -0.6232305 0 1 0
0.8660605 5.2183747 -0.5482305 0 1 0
1.0160605 5.2183747 -0.6232305 0 1 0
1.0160605 5.2183747 -0.5482305 0 1 0
0.8660605 5.2183747 -0.4732305 0 1 0
0.8660605 5.2183747 -0.3982305 0 1 0
