ply
format ascii 1.0
element face 0
property list uchar int vertex_indices
element vertex 1327
property float x
property float y
property float z
property uchar red
property uchar green
property uchar blue
end_header
2.2125000 1.4625000 0.3375000 0 1 0
2.2125000 1.4625000 0.4125000 0 1 0
2.3625000 1.4625000 0.3375000 0 1 0
2.3625000 1.4625000 0.4125000 0 1 0
2.2125000 1.4625000 0.4875000 0 1 0
2.2125000 1.4625000 0.5625000 0 1 0
2.3625000 1.4625000 0.4875000 0 1 0
2.3625000 1.4625000 0.5625000 0 1 0
1.3125000 1.4625000 0.6375000 0 1 0
1.3125000 1.4625000 0.7125000 0 1 0
1.4625000 1.4625000 0.6375000 0 1 0
1.4625000 1.4625000 0.7125000 0 1 0
1.3125000 1.4625000 0.7875000 0 1 0
1.3125000 1.4625000 0.8625000 0 1 0
1.4625000 1.4625000 0.7875000 0 1 0
1.4625000 1.4625000 0.8625000 0 1 0
1.6125000 1.4625000 0.6375000 0 1 0
1.6125000 1.4625000 0.7125000 0 1 0
1.7625000 1.4625000 0.6375000 0 1 0
1.7625000 1.4625000 0.7125000 0 1 0
1.6125000 1.4625000 0.7875000 0 1 0
1.6125000 1.4625000 0.8625000 0 1 0
1.7625000 1.4625000 0.7875000 0 1 0
1.7625000 1.4625000 0.8625000 0 1 0
1.3125000 1.4625000 0.9375000 0 1 1
1.3125000 1.4625000 1.0125000 0 1 0
1.4625000 1.4625000 0.9375000 0 1 1
1.4625000 1.4625000 1.0125000 0 1 1
1.3125000 1.4625000 1.0875000 0 1 1
1.3125000 1.4625000 1.1625000 0 1 1
1.4625000 1.4625000 1.0875000 0 1 1
1.4625000 1.4625000 1.1625000 0 1 0
1.6125000 1.4625000 0.9375000 0 1 1
1.6125000 1.4625000 1.0125000 0 1 0
1.7625000 1.4625000 0.9375000 0 1 1
1.7625000 1.4625000 1.0125000 0 1 1
1.6125000 1.4625000 1.0875000 0 1 1
1.6125000 1.4625000 1.1625000 0 1 1
1.7625000 1.4625000 1.0875000 0 1 1
1.7625000 1.4625000 1.1625000 0 1 0
1.9125000 1.4625000 0.6375000 0 1 0
1.9125000 1.4625000 0.7125000 0 1 0
2.0625000 1.4625000 0.6375000 0 1 0
2.0625000 1.4625000 0.7125000 0 1 0
1.9125000 1.4625000 0.7875000 0 1 0
1.9125000 1.4625000 0.8625000 0 1 0
2.0625000 1.4625000 0.7875000 0 1 0
2.0625000 1.4625000 0.8625000 0 1 0
2.2125000 1.4625000 0.6375000 0 1 0
2.2125000 1.4625000 0.7125000 0 1 0
2.3625000 1.4625000 0.6375000 0 1 0
2.3625000 1.4625000 0.7125000 0 1 0
2.2125000 1.4625000 0.7875000 0 1 0
2.2125000 1.4625000 0.8625000 0 1 0
2.3625000 1.4625000 0.7875000 0 1 0
2.3625000 1.4625000 0.8625000 0 1 0
1.9125000 1.4625000 0.9375000 0 1 1
1.9125000 1.4625000 1.0125000 0 1 0
2.0625000 1.4625000 0.9375000 0 1 1
2.0625000 1.4625000 1.0125000 0 1 1
1.9125000 1.4625000 1.0875000 0 1 1
1.9125000 1.4625000 1.1625000 0 1 1
2.0625000 1.4625000 1.0875000 0 1 1
2.0625000 1.4625000 1.1625000 0 1 0
2.2125000 1.4625000 0.9375000 0 1 1
2.2125000 1.4625000 1.0125000 0 1 0
2.3625000 1.4625000 0.9375000 0 1 1
2.3625000 1.4625000 1.0125000 0 1 1
2.2125000 1.4625000 1.0875000 0 1 1
2.2125000 1.4625000 1.1625000 0 1 1
2.3625000 1.4625000 1.0875000 0 1 1
2.3625000 1.4625000 1.1625000 0 1 1
0.1125000 1.4625000 1.2375000 0 1 1
0.1125000 1.4625000 1.3125000 0 1 1
0.2625000 1.4625000 1.2375000 0 1 1
0.2625000 1.4625000 1.3125000 0 1 1
0.1125000 1.4625000 1.3875000 0 1 1
0.1125000 1.4625000 1.4625000 0 1 1
0.2625000 1.4625000 1.3875000 0 1 1
0.2625000 1.4625000 1.4625000 0 1 1
0.4125000 1.4625000 1.2375000 0 1 1
0.4125000 1.4625000 1.3125000 0 1 1
0.5625000 1.4625000 1.2375000 0 1 1
0.5625000 1.4625000 1.3125000 0 1 1
0.4125000 1.4625000 1.3875000 0 1 1
0.4125000 1.4625000 1.4625000 0 1 1
0.5625000 1.4625000 1.3875000 0 1 1
0.5625000 1.4625000 1.4625000 0 1 1
0.1125000 1.4625000 1.5375000 0 1 1
0.1125000 1.4625000 1.6125000 0 1 1
0.2625000 1.4625000 1.5375000 0 1 1
0.2625000 1.4625000 1.6125000 0 1 1
0.1125000 1.4625000 1.6875000 0 1 1
0.1125000 1.4625000 1.7625000 0 1 1
0.2625000 1.4625000 1.6875000 0 1 1
0.2625000 1.4625000 1.7625000 0 1 1
0.4125000 1.4625000 1.5375000 0 1 1
0.4125000 1.4625000 1.6125000 0 1 1
0.5625000 1.4625000 1.5375000 0 1 1
0.5625000 1.4625000 1.6125000 0 1 1
0.4125000 1.4625000 1.6875000 0 1 1
0.4125000 1.4625000 1.7625000 0 1 1
0.5625000 1.4625000 1.6875000 0 1 1
0.5625000 1.4625000 1.7625000 0 1 1
0.7125000 1.4625000 1.2375000 0 1 1
0.7125000 1.4625000 1.3125000 0 1 1
0.8625000 1.4625000 1.2375000 0 1 1
0.8625000 1.4625000 1.3125000 0 1 1
0.7125000 1.4625000 1.3875000 0 1 1
0.7125000 1.4625000 1.4625000 0 1 1
0.8625000 1.4625000 1.3875000 0 1 1
0.8625000 1.4625000 1.4625000 0 1 1
1.0125000 1.4625000 1.2375000 0 1 1
1.0125000 1.4625000 1.3125000 0 1 1
1.1625000 1.4625000 1.2375000 0 1 1
1.1625000 1.4625000 1.3125000 0 1 1
1.0125000 1.4625000 1.3875000 0 1 1
1.0125000 1.4625000 1.4625000 0 1 1
1.1625000 1.4625000 1.3875000 0 1 1
1.1625000 1.4625000 1.4625000 0 1 1
0.7125000 1.4625000 1.5375000 0 1 1
0.7125000 1.4625000 1.6125000 0 1 1
0.8625000 1.4625000 1.5375000 0 1 1
0.8625000 1.4625000 1.6125000 0 1 1
0.7125000 1.4625000 1.6875000 0 1 1
0.7125000 1.4625000 1.7625000 0 1 1
0.8625000 1.4625000 1.6875000 0 1 1
0.8625000 1.4625000 1.7625000 0 1 1
1.0125000 1.4625000 1.5375000 0 1 1
1.0125000 1.4625000 1.6125000 0 1 1
1.1625000 1.4625000 1.5375000 0 1 1
1.1625000 1.4625000 1.6125000 0 1 1
1.0125000 1.4625000 1.6875000 0 1 1
1.0125000 1.4625000 1.7625000 0 1 1
1.1625000 1.4625000 1.6875000 0 1 1
1.1625000 1.4625000 1.7625000 0 1 1
0.1125000 1.4625000 1.8375000 0 1 1
0.1125000 1.4625000 1.9125000 0 1 1
0.2625000 1.4625000 1.8375000 0 1 1
0.2625000 1.4625000 1.9125000 0 1 1
0.1125000 1.4625000 1.9875000 0 1 2
0.1125000 1.4625000 2.0625000 0 1 1
0.2625000 1.4625000 1.9875000 0 1 2
0.2625000 1.4625000 2.0625000 0 1 1
0.4125000 1.4625000 1.8375000 0 1 1
0.4125000 1.4625000 1.9125000 0 1 1
0.5625000 1.4625000 1.8375000 0 1 1
0.5625000 1.4625000 1.9125000 0 1 1
0.4125000 1.4625000 1.9875000 0 1 2
0.4125000 1.4625000 2.0625000 0 1 1
0.5625000 1.4625000 1.9875000 0 1 2
0.5625000 1.4625000 2.0625000 0 1 2
0.1125000 1.4625000 2.1375000 0 1 2
0.1125000 1.4625000 2.2125000 0 1 2
0.2625000 1.4625000 2.1375000 0 1 2
0.2625000 1.4625000 2.2125000 0 1 2
0.1125000 1.4625000 2.2875000 0 1 2
0.1125000 1.4625000 2.3625000 0 1 2
0.2625000 1.4625000 2.2875000 0 1 2
0.2625000 1.4625000 2.3625000 0 1 2
0.4125000 1.4625000 2.1375000 0 1 2
0.4125000 1.4625000 2.2125000 0 1 2
0.5625000 1.4625000 2.1375000 0 1 2
0.5625000 1.4625000 2.2125000 0 1 2
0.4125000 1.4625000 2.2875000 0 1 2
0.4125000 1.4625000 2.3625000 0 1 2
0.5625000 1.4625000 2.2875000 0 1 2
0.5625000 1.4625000 2.3625000 0 1 1
0.7125000 1.4625000 1.8375000 0 1 1
0.7125000 1.4625000 1.9125000 0 1 1
0.8625000 1.4625000 1.8375000 0 1 1
0.8625000 1.4625000 1.9125000 0 1 1
0.7125000 1.4625000 1.9875000 0 1 2
0.7125000 1.4625000 2.0625000 0 1 1
0.8625000 1.4625000 1.9875000 0 1 2
0.8625000 1.4625000 2.0625000 0 1 1
1.0125000 1.4625000 1.8375000 0 1 1
1.0125000 1.4625000 1.9125000 0 1 1
1.1625000 1.4625000 1.8375000 0 1 1
1.1625000 1.4625000 1.9125000 0 1 1
1.0125000 1.4625000 1.9875000 0 1 2
1.0125000 1.4625000 2.0625000 0 1 1
1.1625000 1.4625000 1.9875000 0 1 2
1.1625000 1.4625000 2.0625000 0 1 2
0.7125000 1.4625000 2.1375000 0 1 2
0.7125000 1.4625000 2.2125000 0 1 2
0.8625000 1.4625000 2.1375000 0 1 2
0.8625000 1.4625000 2.2125000 0 1 2
0.7125000 1.4625000 2.2875000 0 1 2
0.7125000 1.4625000 2.3625000 0 1 2
0.8625000 1.4625000 2.2875000 0 1 2
0.8625000 1.4625000 2.3625000 0 1 2
1.0125000 1.4625000 2.1375000 0 1 2
1.0125000 1.4625000 2.2125000 0 1 2
1.1625000 1.4625000 2.1375000 0 1 2
1.1625000 1.4625000 2.2125000 0 1 2
1.0125000 1.4625000 2.2875000 0 1 2
1.0125000 1.4625000 2.3625000 0 1 2
1.1625000 1.4625000 2.2875000 0 1 2
1.1625000 1.4625000 2.3625000 0 1 1
1.3125000 1.4625000 1.2375000 0 1 1
1.3125000 1.4625000 1.3125000 0 1 1
1.4625000 1.4625000 1.2375000 0 1 1
1.4625000 1.4625000 1.3125000 0 1 1
1.3125000 1.4625000 1.3875000 0 1 1
1.3125000 1.4625000 1.4625000 0 1 1
1.4625000 1.4625000 1.3875000 0 1 1
1.4625000 1.4625000 1.4625000 0 1 1
1.6125000 1.4625000 1.2375000 0 1 1
1.6125000 1.4625000 1.3125000 0 1 1
1.7625000 1.4625000 1.2375000 0 1 1
1.7625000 1.4625000 1.3125000 0 1 1
1.6125000 1.4625000 1.3875000 0 1 1
1.6125000 1.4625000 1.4625000 0 1 1
1.7625000 1.4625000 1.3875000 0 1 1
1.7625000 1.4625000 1.4625000 0 1 1
1.3125000 1.4625000 1.5375000 0 1 1
1.3125000 1.4625000 1.6125000 0 1 1
1.4625000 1.4625000 1.5375000 0 1 1
1.4625000 1.4625000 1.6125000 0 1 1
1.3125000 1.4625000 1.6875000 0 1 1
1.3125000 1.4625000 1.7625000 0 1 1
1.4625000 1.4625000 1.6875000 0 1 1
1.4625000 1.4625000 1.7625000 0 1 1
1.6125000 1.4625000 1.5375000 0 1 1
1.6125000 1.4625000 1.6125000 0 1 1
1.7625000 1.4625000 1.5375000 0 1 1
1.7625000 1.4625000 1.6125000 0 1 1
1.6125000 1.4625000 1.6875000 0 1 1
1.6125000 1.4625000 1.7625000 0 1 1
1.7625000 1.4625000 1.6875000 0 1 1
1.7625000 1.4625000 1.7625000 0 1 1
1.9125000 1.4625000 1.2375000 0 1 1
1.9125000 1.4625000 1.3125000 0 1 1
2.0625000 1.4625000 1.2375000 0 1 1
2.0625000 1.4625000 1.3125000 0 1 1
1.9125000 1.4625000 1.3875000 0 1 1
1.9125000 1.4625000 1.4625000 0 1 1
2.0625000 1.4625000 1.3875000 0 1 1
2.0625000 1.4625000 1.4625000 0 1 1
2.2125000 1.4625000 1.2375000 0 1 1
2.2125000 1.4625000 1.3125000 0 1 1
2.3625000 1.4625000 1.2375000 0 1 1
2.3625000 1.4625000 1.3125000 0 1 1
2.2125000 1.4625000 1.3875000 0 1 1
2.2125000 1.4625000 1.4625000 0 1 1
2.3625000 1.4625000 1.3875000 0 1 1
2.3625000 1.4625000 1.4625000 0 1 1
1.9125000 1.4625000 1.5375000 0 1 1
1.9125000 1.4625000 1.6125000 0 1 1
2.0625000 1.4625000 1.5375000 0 1 1
2.0625000 1.4625000 1.6125000 0 1 1
1.9125000 1.4625000 1.6875000 0 1 1
1.9125000 1.4625000 1.7625000 0 1 1
2.0625000 1.4625000 1.6875000 0 1 1
2.0625000 1.4625000 1.7625000 0 1 1
2.2125000 1.4625000 1.5375000 0 1 1
2.2125000 1.4625000 1.6125000 0 1 1
2.3625000 1.4625000 1.5375000 0 1 1
2.3625000 1.4625000 1.6125000 0 1 1
2.2125000 1.4625000 1.6875000 0 1 1
2.2125000 1.4625000 1.7625000 0 1 1
2.3625000 1.4625000 1.6875000 0 1 1
2.3625000 1.4625000 1.7625000 0 1 1
1.3125000 1.4625000 1.8375000 0 1 1
1.3125000 1.4625000 1.9125000 0 1 1
1.4625000 1.4625000 1.8375000 0 1 1
1.4625000 1.4625000 1.9125000 0 1 1
1.3125000 1.4625000 1.9875000 0 1 2
1.3125000 1.4625000 2.0625000 0 1 1
1.4625000 1.4625000 1.9875000 0 1 2
1.4625000 1.4625000 2.0625000 0 1 1
1.6125000 1.4625000 1.8375000 0 1 1
1.6125000 1.4625000 1.9125000 0 1 1
1.7625000 1.4625000 1.8375000 0 1 1
1.7625000 1.4625000 1.9125000 0 1 1
1.6125000 1.4625000 1.9875000 0 1 2
1.6125000 1.4625000 2.0625000 0 1 1
1.7625000 1.4625000 1.9875000 0 1 2
1.7625000 1.4625000 2.0625000 0 1 2
1.3125000 1.4625000 2.1375000 0 1 2
1.3125000 1.4625000 2.2125000 0 1 2
1.4625000 1.4625000 2.1375000 0 1 2
1.4625000 1.4625000 2.2125000 0 1 2
1.3125000 1.4625000 2.2875000 0 1 2
1.3875000 1.4625000 2.2875000 0 1 2
1.5375000 1.4625000 2.1375000 0 1 2
1.5375000 1.4625000 2.2125000 0 1 2
1.6875000 1.4625000 2.1375000 0 1 2
1.6875000 1.4625000 2.2125000 0 1 1
1.9125000 1.4625000 1.8375000 0 1 1
1.9125000 1.4625000 1.9125000 0 1 1
2.0625000 1.4625000 1.8375000 0 1 1
2.0625000 1.4625000 1.9125000 0 1 1
1.9125000 1.4625000 1.9875000 0 1 2
1.9125000 1.4625000 2.0625000 0 1 1
2.0625000 1.4625000 1.9875000 0 1 2
2.0625000 1.4625000 2.0625000 0 1 1
2.2125000 1.4625000 1.8375000 0 1 1
2.2125000 1.4625000 1.9125000 0 1 1
2.3625000 1.4625000 1.8375000 0 1 1
2.3625000 1.4625000 1.9125000 0 1 1
2.2125000 1.4625000 1.9875000 0 1 2
2.2875000 1.4625000 1.9875000 0 1 1
1.8375000 1.4625000 2.1375000 0 1 2
2.6625000 0.5625000 0.0375000 0 0 0
2.7375000 0.5625000 0.0375000 0 0 0
2.8875000 0.4875000 0.0375000 0 0 0
2.8875000 0.5625000 0.0375000 0 0 0
3.2625000 0.1875000 0.0375000 0 0 0
3.2625000 0.2625000 0.0375000 0 0 0
3.3375000 0.1875000 0.0375000 0 0 0
3.3375000 0.2625000 0.0375000 0 0 0
3.0375000 0.3375000 0.0375000 0 0 0
3.0375000 0.4125000 0.0375000 0 0 0
3.1875000 0.3375000 0.0375000 0 0 0
3.1875000 0.4125000 0.0375000 0 0 0
2.5125000 0.7125000 0.0375000 0 0 0
2.6625000 0.6375000 0.0375000 0 0 0
2.6625000 0.7125000 0.0375000 0 0 0
2.4375000 0.8625000 0.0375000 0 0 0
2.5875000 0.7875000 0.0375000 0 0 0
2.5875000 0.8625000 0.0375000 0 0 0
2.8125000 0.6375000 0.0375000 0 0 0
2.8875000 0.6375000 0.0375000 0 0 0
2.5125000 1.0125000 0.0375000 0 0 0
2.6625000 0.9375000 0.0375000 0 1 0
2.6625000 1.0125000 0.0375000 0 1 0
2.5875000 1.0875000 0.0375000 0 1 0
2.5875000 1.1625000 0.0375000 0 1 0
2.7375000 1.0125000 0.0375000 0 1 0
2.7375000 1.0875000 0.0375000 0 1 0
2.7375000 1.1625000 0.0375000 0 1 0
2.8875000 1.0875000 0.0375000 0 1 0
2.8875000 1.1625000 0.0375000 0 1 0
3.1875000 1.0125000 0.0375000 0 1 0
2.5875000 1.2375000 0.0375000 0 1 0
2.6625000 1.3125000 0.0375000 0 1 0
2.4375000 1.4625000 0.1125000 0 1 0
2.6625000 1.4625000 0.0375000 0 1 0
2.6625000 1.4625000 0.1125000 0 1 0
2.6625000 1.4625000 0.1875000 0 1 0
2.6625000 1.4625000 0.2625000 0 1 0
2.8125000 1.2375000 0.0375000 0 1 0
2.8125000 1.3125000 0.0375000 0 1 0
2.9625000 1.2375000 0.0375000 0 1 0
2.9625000 1.3125000 0.0375000 0 1 0
2.7375000 1.4625000 0.0375000 0 1 0
2.7375000 1.4625000 0.1125000 0 1 0
2.8875000 1.3875000 0.0375000 0 1 0
2.8875000 1.4625000 0.0375000 0 1 0
2.8875000 1.4625000 0.1125000 0 1 0
2.7375000 1.4625000 0.1875000 0 1 0
2.7375000 1.4625000 0.2625000 0 1 0
2.8875000 1.4625000 0.1875000 0 1 0
2.8875000 1.4625000 0.2625000 0 1 0
2.5875000 1.4625000 0.3375000 0 1 0
2.5875000 1.4625000 0.4125000 0 1 0
2.5875000 1.4625000 0.4875000 0 1 0
2.5875000 1.4625000 0.5625000 0 1 0
2.7375000 1.4625000 0.3375000 0 1 0
2.7375000 1.4625000 0.4125000 0 1 0
2.8875000 1.4625000 0.3375000 0 1 0
2.8875000 1.4625000 0.4125000 0 1 0
2.7375000 1.4625000 0.4875000 0 1 0
2.7375000 1.4625000 0.5625000 0 1 0
2.8875000 1.4625000 0.4875000 0 1 0
2.8875000 1.4625000 0.5625000 0 1 0
3.0375000 1.2375000 0.0375000 0 1 0
3.0375000 1.3125000 0.0375000 0 1 0
3.1875000 1.2375000 0.0375000 0 1 0
3.2625000 1.3125000 0.0375000 0 1 0
3.1125000 1.3875000 0.0375000 0 1 0
3.1125000 1.4625000 0.0375000 0 1 0
3.1125000 1.4625000 0.1125000 0 1 0
3.2625000 1.3875000 0.0375000 0 1 0
3.2625000 1.4625000 0.0375000 0 1 0
3.2625000 1.4625000 0.1125000 0 1 0
3.1125000 1.4625000 0.1875000 0 1 0
3.1125000 1.4625000 0.2625000 0 1 0
3.2625000 1.4625000 0.1875000 0 1 0
3.2625000 1.4625000 0.2625000 0 1 0
3.5625000 1.3125000 0.0375000 0 1 0
3.4125000 1.3875000 0.0375000 0 1 0
3.4125000 1.4625000 0.0375000 0 1 0
3.4125000 1.4625000 0.1125000 0 1 0
3.4875000 1.4625000 0.0375000 0 1 0
3.4875000 1.4625000 0.1125000 0 1 0
3.3375000 1.4625000 0.1875000 0 1 0
3.3375000 1.4625000 0.2625000 0 1 0
3.4875000 1.4625000 0.1875000 0 1 0
3.4875000 1.4625000 0.2625000 0 1 0
3.0375000 1.4625000 0.3375000 0 1 0
3.0375000 1.4625000 0.4125000 0 1 0
3.1875000 1.4625000 0.3375000 0 1 0
3.1875000 1.4625000 0.4125000 0 1 0
3.0375000 1.4625000 0.4875000 0 1 0
3.0375000 1.4625000 0.5625000 0 1 0
3.1875000 1.4625000 0.4875000 0 1 0
3.1875000 1.4625000 0.5625000 0 1 0
3.3375000 1.4625000 0.3375000 0 1 0
3.3375000 1.4625000 0.4125000 0 1 0
3.4875000 1.4625000 0.3375000 0 1 0
3.4875000 1.4625000 0.4125000 0 1 0
3.3375000 1.4625000 0.4875000 0 1 0
3.3375000 1.4625000 0.5625000 0 1 0
3.4875000 1.4625000 0.4875000 0 1 0
3.4875000 1.4625000 0.5625000 0 1 0
2.5875000 1.4625000 0.6375000 0 1 0
2.5875000 1.4625000 0.7125000 0 1 0
2.5875000 1.4625000 0.7875000 0 1 0
2.5875000 1.4625000 0.8625000 0 1 0
2.7375000 1.4625000 0.6375000 0 1 0
2.7375000 1.4625000 0.7125000 0 1 0
2.8875000 1.4625000 0.6375000 0 1 0
2.8875000 1.4625000 0.7125000 0 1 0
2.7375000 1.4625000 0.7875000 0 1 0
2.7375000 1.4625000 0.8625000 0 1 0
2.8875000 1.4625000 0.7875000 0 1 0
2.8875000 1.4625000 0.8625000 0 1 0
2.5875000 1.4625000 0.9375000 0 1 0
2.5875000 1.4625000 1.0125000 0 1 1
2.5875000 1.4625000 1.0875000 0 1 1
2.5875000 1.4625000 1.1625000 0 1 1
2.7375000 1.4625000 0.9375000 0 1 0
2.7375000 1.4625000 1.0125000 0 1 1
2.8875000 1.4625000 0.9375000 0 1 0
2.8875000 1.4625000 1.0125000 0 1 1
2.7375000 1.4625000 1.0875000 0 1 1
2.7375000 1.4625000 1.1625000 0 1 1
2.8875000 1.4625000 1.0875000 0 1 1
2.8875000 1.4625000 1.1625000 0 1 1
3.0375000 1.4625000 0.6375000 0 1 0
3.0375000 1.4625000 0.7125000 0 1 0
3.1875000 1.4625000 0.6375000 0 1 0
3.1875000 1.4625000 0.7125000 0 1 0
3.0375000 1.4625000 0.7875000 0 1 0
3.0375000 1.4625000 0.8625000 0 1 0
3.1875000 1.4625000 0.7875000 0 1 0
3.1875000 1.4625000 0.8625000 0 1 0
3.3375000 1.4625000 0.6375000 0 1 0
3.3375000 1.4625000 0.7125000 0 1 0
3.4875000 1.4625000 0.6375000 0 1 0
3.4875000 1.4625000 0.7125000 0 1 0
3.3375000 1.4625000 0.7875000 0 1 0
3.3375000 1.4625000 0.8625000 0 1 0
3.4875000 1.4625000 0.7875000 0 1 0
3.4875000 1.4625000 0.8625000 0 1 0
3.0375000 1.4625000 0.9375000 0 1 0
3.0375000 1.4625000 1.0125000 0 1 1
3.1875000 1.4625000 0.9375000 0 1 0
3.1875000 1.4625000 1.0125000 0 1 1
3.0375000 1.4625000 1.0875000 0 1 1
3.0375000 1.4625000 1.1625000 0 1 1
3.1875000 1.4625000 1.0875000 0 1 1
3.1875000 1.4625000 1.1625000 0 1 1
3.3375000 1.4625000 0.9375000 0 1 0
3.3375000 1.4625000 1.0125000 0 1 1
3.4875000 1.4625000 0.9375000 0 1 0
3.4875000 1.4625000 1.0125000 0 1 1
3.3375000 1.4625000 1.0875000 0 1 1
3.3375000 1.4625000 1.1625000 0 1 1
3.4875000 1.4625000 1.0875000 0 1 1
3.4875000 1.4625000 1.1625000 0 1 1
3.6375000 1.3875000 0.0375000 0 1 0
3.6375000 1.4625000 0.0375000 0 1 0
3.6375000 1.4625000 0.1125000 0 1 0
3.7875000 1.4625000 0.0375000 0 1 0
3.7875000 1.4625000 0.1125000 0 1 0
3.6375000 1.4625000 0.1875000 0 1 0
3.6375000 1.4625000 0.2625000 0 1 0
3.7875000 1.4625000 0.1875000 0 1 0
3.7875000 1.4625000 0.2625000 0 1 0
3.9375000 1.4625000 0.0375000 0 1 0
3.9375000 1.4625000 0.1125000 0 1 0
4.0875000 1.4625000 0.0375000 0 1 0
4.0875000 1.4625000 0.1125000 0 1 0
3.9375000 1.4625000 0.1875000 0 1 0
3.9375000 1.4625000 0.2625000 0 1 0
4.0875000 1.4625000 0.1875000 0 1 0
4.0875000 1.4625000 0.2625000 0 1 0
3.6375000 1.4625000 0.3375000 0 1 0
3.6375000 1.4625000 0.4125000 0 1 0
3.7875000 1.4625000 0.3375000 0 1 0
3.7875000 1.4625000 0.4125000 0 1 0
3.6375000 1.4625000 0.4875000 0 1 0
3.6375000 1.4625000 0.5625000 0 1 0
3.7875000 1.4625000 0.4875000 0 1 0
3.7875000 1.4625000 0.5625000 0 1 0
3.9375000 1.4625000 0.3375000 0 1 0
3.9375000 1.4625000 0.4125000 0 1 0
4.0875000 1.4625000 0.3375000 0 1 0
4.0875000 1.4625000 0.4125000 0 1 0
3.9375000 1.4625000 0.4875000 0 1 0
3.9375000 1.4625000 0.5625000 0 1 0
4.0875000 1.4625000 0.4875000 0 1 0
4.0875000 1.4625000 0.5625000 0 1 0
4.2375000 1.4625000 0.0375000 0 1 0
4.2375000 1.4625000 0.1125000 0 1 0
4.3875000 1.4625000 0.0375000 0 1 0
4.3875000 1.4625000 0.1125000 0 1 0
4.2375000 1.4625000 0.1875000 0 1 0
4.2375000 1.4625000 0.2625000 0 1 0
4.3875000 1.4625000 0.1875000 0 1 0
4.3875000 1.4625000 0.2625000 0 1 0
4.5375000 1.4625000 0.0375000 0 1 0
4.5375000 1.4625000 0.1125000 0 1 0
4.6875000 1.4625000 0.0375000 0 1 0
4.6875000 1.4625000 0.1125000 0 1 0
4.5375000 1.4625000 0.1875000 0 1 0
4.5375000 1.4625000 0.2625000 0 1 0
4.6875000 1.4625000 0.1875000 0 1 0
4.6875000 1.4625000 0.2625000 0 1 0
4.2375000 1.4625000 0.3375000 0 1 0
4.2375000 1.4625000 0.4125000 0 1 0
4.3875000 1.4625000 0.3375000 0 1 0
4.3875000 1.4625000 0.4125000 0 1 0
4.2375000 1.4625000 0.4875000 0 1 0
4.2375000 1.4625000 0.5625000 0 1 0
4.3875000 1.4625000 0.4875000 0 1 0
4.3875000 1.4625000 0.5625000 0 1 0
4.5375000 1.4625000 0.3375000 0 1 0
4.5375000 1.4625000 0.4125000 0 1 0
4.6875000 1.4625000 0.3375000 0 1 0
4.6875000 1.4625000 0.4125000 0 1 0
4.5375000 1.4625000 0.4875000 0 1 0
4.5375000 1.4625000 0.5625000 0 1 0
4.6875000 1.4625000 0.4875000 0 1 0
4.6875000 1.4625000 0.5625000 0 1 0
3.6375000 1.4625000 0.6375000 0 1 0
3.6375000 1.4625000 0.7125000 0 1 0
3.7875000 1.4625000 0.6375000 0 1 0
3.7875000 1.4625000 0.7125000 0 1 0
3.6375000 1.4625000 0.7875000 0 1 0
3.6375000 1.4625000 0.8625000 0 1 0
3.7875000 1.4625000 0.7875000 0 1 0
3.7875000 1.4625000 0.8625000 0 1 0
3.9375000 1.4625000 0.6375000 0 1 0
3.9375000 1.4625000 0.7125000 0 1 0
4.0875000 1.4625000 0.6375000 0 1 0
4.0875000 1.4625000 0.7125000 0 1 0
3.9375000 1.4625000 0.7875000 0 1 0
3.9375000 1.4625000 0.8625000 0 1 0
4.0875000 1.4625000 0.7875000 0 1 0
4.0875000 1.4625000 0.8625000 0 1 0
3.6375000 1.4625000 0.9375000 0 1 0
3.6375000 1.4625000 1.0125000 0 1 1
3.7875000 1.4625000 0.9375000 0 1 0
3.7875000 1.4625000 1.0125000 0 1 1
3.6375000 1.4625000 1.0875000 0 1 1
3.6375000 1.4625000 1.1625000 0 1 1
3.7875000 1.4625000 1.0875000 0 1 1
3.7875000 1.4625000 1.1625000 0 1 1
3.9375000 1.4625000 0.9375000 0 1 0
3.9375000 1.4625000 1.0125000 0 1 1
4.0875000 1.4625000 0.9375000 0 1 0
4.0875000 1.4625000 1.0125000 0 1 1
3.9375000 1.4625000 1.0875000 0 1 1
3.9375000 1.4625000 1.1625000 0 1 1
4.0875000 1.4625000 1.0875000 0 1 1
4.0875000 1.4625000 1.1625000 0 1 1
4.2375000 1.4625000 0.6375000 0 1 0
4.2375000 1.4625000 0.7125000 0 1 0
4.3875000 1.4625000 0.6375000 0 1 0
4.3875000 1.4625000 0.7125000 0 1 0
4.2375000 1.4625000 0.7875000 0 1 0
4.2375000 1.4625000 0.8625000 0 1 0
4.3875000 1.4625000 0.7875000 0 1 0
4.3875000 1.4625000 0.8625000 0 1 0
4.5375000 1.4625000 0.6375000 0 1 0
4.5375000 1.4625000 0.7125000 0 1 0
4.6875000 1.4625000 0.6375000 0 1 0
4.6875000 1.4625000 0.7125000 0 1 0
4.5375000 1.4625000 0.7875000 0 1 0
4.5375000 1.4625000 0.8625000 0 1 0
4.6875000 1.4625000 0.7875000 0 1 0
4.6875000 1.4625000 0.8625000 0 1 0
4.2375000 1.4625000 0.9375000 0 1 0
4.2375000 1.4625000 1.0125000 0 1 1
4.3875000 1.4625000 0.9375000 0 1 0
4.3875000 1.4625000 1.0125000 0 1 1
4.2375000 1.4625000 1.0875000 0 1 1
4.2375000 1.4625000 1.1625000 0 1 1
4.3875000 1.4625000 1.0875000 0 1 1
4.3875000 1.4625000 1.1625000 0 1 1
4.5375000 1.4625000 0.9375000 0 1 0
4.5375000 1.4625000 1.0125000 0 1 1
4.6875000 1.4625000 0.9375000 0 1 0
4.6875000 1.4625000 1.0125000 0 1 1
4.5375000 1.4625000 1.0875000 0 1 1
4.5375000 1.4625000 1.1625000 0 1 1
4.6875000 1.4625000 1.0875000 0 1 1
4.6875000 1.4625000 1.1625000 0 1 1
2.5875000 1.4625000 1.2375000 0 1 1
2.5875000 1.4625000 1.3125000 0 1 1
2.5875000 1.4625000 1.3875000 0 1 1
2.5875000 1.4625000 1.4625000 0 1 1
2.7375000 1.4625000 1.2375000 0 1 1
2.7375000 1.4625000 1.3125000 0 1 1
2.8875000 1.4625000 1.2375000 0 1 1
2.8875000 1.4625000 1.3125000 0 1 1
2.7375000 1.4625000 1.3875000 0 1 1
2.7375000 1.4625000 1.4625000 0 1 1
2.8875000 1.4625000 1.3875000 0 1 1
2.8875000 1.4625000 1.4625000 0 1 1
2.5875000 1.4625000 1.5375000 0 1 1
2.5875000 1.4625000 1.6125000 0 1 1
2.4375000 1.4625000 1.6875000 0 1 1
2.4375000 1.4625000 1.7625000 0 1 1
2.5875000 1.4625000 1.6875000 0 1 1
2.5875000 1.4625000 1.7625000 0 1 1
2.7375000 1.4625000 1.5375000 0 1 1
2.7375000 1.4625000 1.6125000 0 1 1
2.8875000 1.4625000 1.5375000 0 1 1
2.8875000 1.4625000 1.6125000 0 1 1
2.7375000 1.4625000 1.6875000 0 1 1
2.7375000 1.4625000 1.7625000 0 1 1
2.8875000 1.4625000 1.6875000 0 1 1
2.8875000 1.4625000 1.7625000 0 1 1
3.0375000 1.4625000 1.2375000 0 1 1
3.0375000 1.4625000 1.3125000 0 1 1
3.1875000 1.4625000 1.2375000 0 1 1
3.1875000 1.4625000 1.3125000 0 1 1
3.0375000 1.4625000 1.3875000 0 1 1
3.0375000 1.4625000 1.4625000 0 1 1
3.1875000 1.4625000 1.3875000 0 1 1
3.1875000 1.4625000 1.4625000 0 1 1
3.3375000 1.4625000 1.2375000 0 1 1
3.3375000 1.4625000 1.3125000 0 1 1
3.4875000 1.4625000 1.2375000 0 1 1
3.4875000 1.4625000 1.3125000 0 1 1
3.3375000 1.4625000 1.3875000 0 1 1
3.3375000 1.4625000 1.4625000 0 1 1
3.4875000 1.4625000 1.3875000 0 1 1
3.4875000 1.4625000 1.4625000 0 1 1
3.0375000 1.4625000 1.5375000 0 1 1
3.0375000 1.4625000 1.6125000 0 1 1
3.1875000 1.4625000 1.5375000 0 1 1
3.1875000 1.4625000 1.6125000 0 1 1
3.0375000 1.4625000 1.6875000 0 1 1
3.0375000 1.4625000 1.7625000 0 1 1
3.1875000 1.4625000 1.6875000 0 1 1
3.1875000 1.4625000 1.7625000 0 1 1
3.3375000 1.4625000 1.5375000 0 1 1
3.3375000 1.4625000 1.6125000 0 1 1
3.4875000 1.4625000 1.5375000 0 1 1
3.4875000 1.4625000 1.6125000 0 1 1
3.3375000 1.4625000 1.6875000 0 1 1
3.3375000 1.4625000 1.7625000 0 1 1
3.4875000 1.4625000 1.6875000 0 1 1
3.4875000 1.4625000 1.7625000 0 1 1
2.4375000 1.4625000 1.8375000 0 1 1
2.4375000 1.4625000 1.9125000 0 1 1
2.5875000 1.4625000 1.8375000 0 1 1
2.5875000 1.4625000 1.9125000 0 1 1
2.4375000 1.4625000 1.9875000 0 1 1
2.5875000 1.4625000 1.9875000 0 1 1
2.6625000 1.4625000 2.0625000 0 1 1
2.8125000 1.4625000 1.8375000 0 1 1
2.8125000 1.4625000 1.9125000 0 1 1
2.9625000 1.4625000 1.8375000 0 1 1
2.9625000 1.4625000 1.9125000 0 1 1
2.8125000 1.4625000 1.9875000 0 1 2
2.8125000 1.4625000 2.0625000 0 1 1
2.9625000 1.4625000 1.9875000 0 1 2
2.9625000 1.4625000 2.0625000 0 1 2
2.6625000 1.4625000 2.2125000 0 1 2
2.6625000 1.4625000 2.3625000 0 1 2
2.8125000 1.4625000 2.1375000 0 1 2
2.8125000 1.4625000 2.2125000 0 1 2
2.9625000 1.4625000 2.1375000 0 1 2
2.9625000 1.4625000 2.2125000 0 1 2
2.8125000 1.4625000 2.2875000 0 1 2
2.8125000 1.4625000 2.3625000 0 1 2
2.9625000 1.4625000 2.2875000 0 1 2
2.9625000 1.4625000 2.3625000 0 1 1
3.1125000 1.4625000 1.8375000 0 1 1
3.1125000 1.4625000 1.9125000 0 1 1
3.2625000 1.4625000 1.8375000 0 1 1
3.2625000 1.4625000 1.9125000 0 1 1
3.1125000 1.4625000 1.9875000 0 1 2
3.1125000 1.4625000 2.0625000 0 1 1
3.2625000 1.4625000 1.9875000 0 1 2
3.2625000 1.4625000 2.0625000 0 1 1
3.4125000 1.4625000 1.8375000 0 1 1
3.4125000 1.4625000 1.9125000 0 1 1
3.5625000 1.4625000 1.8375000 0 1 1
3.5625000 1.4625000 1.9125000 0 1 1
3.4125000 1.4625000 1.9875000 0 1 2
3.4125000 1.4625000 2.0625000 0 1 1
3.5625000 1.4625000 1.9875000 0 1 2
3.5625000 1.4625000 2.0625000 0 1 2
3.1125000 1.4625000 2.1375000 0 1 2
3.1125000 1.4625000 2.2125000 0 1 2
3.2625000 1.4625000 2.1375000 0 1 2
3.2625000 1.4625000 2.2125000 0 1 2
3.1125000 1.4625000 2.2875000 0 1 2
3.1125000 1.4625000 2.3625000 0 1 2
3.2625000 1.4625000 2.2875000 0 1 2
3.2625000 1.4625000 2.3625000 0 1 2
3.4125000 1.4625000 2.1375000 0 1 2
3.4125000 1.4625000 2.2125000 0 1 2
3.5625000 1.4625000 2.1375000 0 1 2
3.5625000 1.4625000 2.2125000 0 1 2
3.4125000 1.4625000 2.2875000 0 1 2
3.4125000 1.4625000 2.3625000 0 1 2
3.5625000 1.4625000 2.2875000 0 1 2
3.5625000 1.4625000 2.3625000 0 1 1
3.7125000 1.4625000 1.2375000 0 1 1
3.7125000 1.4625000 1.3125000 0 1 1
3.8625000 1.4625000 1.2375000 0 1 1
3.8625000 1.4625000 1.3125000 0 1 1
3.7125000 1.4625000 1.3875000 0 1 1
3.7125000 1.4625000 1.4625000 0 1 1
3.8625000 1.4625000 1.3875000 0 1 1
3.8625000 1.4625000 1.4625000 0 1 1
4.0125000 1.4625000 1.2375000 0 1 1
4.0125000 1.4625000 1.3125000 0 1 1
4.1625000 1.4625000 1.2375000 0 1 1
4.1625000 1.4625000 1.3125000 0 1 1
4.0125000 1.4625000 1.3875000 0 1 1
4.0125000 1.4625000 1.4625000 0 1 1
4.1625000 1.4625000 1.3875000 0 1 1
4.1625000 1.4625000 1.4625000 0 1 1
3.7125000 1.4625000 1.5375000 0 1 1
3.7125000 1.4625000 1.6125000 0 1 1
3.8625000 1.4625000 1.5375000 0 1 1
3.8625000 1.4625000 1.6125000 0 1 1
3.7125000 1.4625000 1.6875000 0 1 1
3.7125000 1.4625000 1.7625000 0 1 1
3.8625000 1.4625000 1.6875000 0 1 1
3.8625000 1.4625000 1.7625000 0 1 1
4.0125000 1.4625000 1.5375000 0 1 1
4.0125000 1.4625000 1.6125000 0 1 1
4.1625000 1.4625000 1.5375000 0 1 1
4.1625000 1.4625000 1.6125000 0 1 1
4.0125000 1.4625000 1.6875000 0 1 1
4.0125000 1.4625000 1.7625000 0 1 1
4.1625000 1.4625000 1.6875000 0 1 1
4.1625000 1.4625000 1.7625000 0 1 1
4.3125000 1.4625000 1.2375000 0 1 1
4.3125000 1.4625000 1.3125000 0 1 1
4.4625000 1.4625000 1.2375000 0 1 1
4.4625000 1.4625000 1.3125000 0 1 1
4.3125000 1.4625000 1.3875000 0 1 1
4.3125000 1.4625000 1.4625000 0 1 1
4.4625000 1.4625000 1.3875000 0 1 1
4.4625000 1.4625000 1.4625000 0 1 1
4.6125000 1.4625000 1.2375000 0 1 1
4.6125000 1.4625000 1.3125000 0 1 1
4.7625000 1.4625000 1.2375000 0 1 1
4.7625000 1.4625000 1.3125000 0 1 1
4.6125000 1.4625000 1.3875000 0 1 1
4.6125000 1.4625000 1.4625000 0 1 1
4.7625000 1.4625000 1.3875000 0 1 1
4.7625000 1.4625000 1.4625000 0 1 1
4.3125000 1.4625000 1.5375000 0 1 1
4.3125000 1.4625000 1.6125000 0 1 1
4.4625000 1.4625000 1.5375000 0 1 1
4.4625000 1.4625000 1.6125000 0 1 1
4.3125000 1.4625000 1.6875000 0 1 1
4.3125000 1.4625000 1.7625000 0 1 1
4.4625000 1.4625000 1.6875000 0 1 1
4.4625000 1.4625000 1.7625000 0 1 1
4.6125000 1.4625000 1.5375000 0 1 1
4.6125000 1.4625000 1.6125000 0 1 1
4.7625000 1.4625000 1.5375000 0 1 1
4.7625000 1.4625000 1.6125000 0 1 1
4.6125000 1.4625000 1.6875000 0 1 1
4.6125000 1.4625000 1.7625000 0 1 1
4.7625000 1.4625000 1.6875000 0 1 1
4.7625000 1.4625000 1.7625000 0 1 1
3.7125000 1.4625000 1.8375000 0 1 1
3.7125000 1.4625000 1.9125000 0 1 1
3.8625000 1.4625000 1.8375000 0 1 1
3.8625000 1.4625000 1.9125000 0 1 1
3.7125000 1.4625000 1.9875000 0 1 2
3.7125000 1.4625000 2.0625000 0 1 1
3.8625000 1.4625000 1.9875000 0 1 2
3.8625000 1.4625000 2.0625000 0 1 1
4.0125000 1.4625000 1.8375000 0 1 1
4.0125000 1.4625000 1.9125000 0 1 1
4.1625000 1.4625000 1.8375000 0 1 1
4.1625000 1.4625000 1.9125000 0 1 1
4.0125000 1.4625000 1.9875000 0 1 2
4.0125000 1.4625000 2.0625000 0 1 1
4.1625000 1.4625000 1.9875000 0 1 2
4.1625000 1.4625000 2.0625000 0 1 2
3.7125000 1.4625000 2.1375000 0 1 2
3.7125000 1.4625000 2.2125000 0 1 2
3.8625000 1.4625000 2.1375000 0 1 2
3.8625000 1.4625000 2.2125000 0 1 2
3.7125000 1.4625000 2.2875000 0 1 2
3.7125000 1.4625000 2.3625000 0 1 2
3.8625000 1.4625000 2.2875000 0 1 2
3.8625000 1.4625000 2.3625000 0 1 2
4.0125000 1.4625000 2.1375000 0 1 2
4.0125000 1.4625000 2.2125000 0 1 2
4.1625000 1.4625000 2.1375000 0 1 2
4.1625000 1.4625000 2.2125000 0 1 2
4.0125000 1.4625000 2.2875000 0 1 2
4.0125000 1.4625000 2.3625000 0 1 2
4.1625000 1.4625000 2.2875000 0 1 2
4.1625000 1.4625000 2.3625000 0 1 1
4.3125000 1.4625000 1.8375000 0 1 1
4.3125000 1.4625000 1.9125000 0 1 1
4.4625000 1.4625000 1.8375000 0 1 1
4.4625000 1.4625000 1.9125000 0 1 1
4.3125000 1.4625000 1.9875000 0 1 2
4.3125000 1.4625000 2.0625000 0 1 1
4.4625000 1.4625000 1.9875000 0 1 2
4.4625000 1.4625000 2.0625000 0 1 1
4.6125000 1.4625000 1.8375000 0 1 1
4.6125000 1.4625000 1.9125000 0 1 1
4.7625000 1.4625000 1.8375000 0 1 1
4.7625000 1.4625000 1.9125000 0 1 1
4.6125000 1.4625000 1.9875000 0 1 2
4.6125000 1.4625000 2.0625000 0 1 1
4.7625000 1.4625000 1.9875000 0 1 2
4.7625000 1.4625000 2.0625000 0 1 2
4.3125000 1.4625000 2.1375000 0 1 2
4.3125000 1.4625000 2.2125000 0 1 2
4.4625000 1.4625000 2.1375000 0 1 2
4.4625000 1.4625000 2.2125000 0 1 2
4.3125000 1.4625000 2.2875000 0 1 2
4.3125000 1.4625000 2.3625000 0 1 2
4.4625000 1.4625000 2.2875000 0 1 2
4.4625000 1.4625000 2.3625000 0 1 2
4.6125000 1.4625000 2.1375000 0 1 2
4.6125000 1.4625000 2.2125000 0 1 2
4.7625000 1.4625000 2.1375000 0 1 2
4.7625000 1.4625000 2.2125000 0 1 2
4.6125000 1.4625000 2.2875000 0 1 2
4.6125000 1.4625000 2.3625000 0 1 2
4.7625000 1.4625000 2.2875000 0 1 2
4.7625000 1.4625000 2.3625000 0 1 2
0.1125000 1.4625000 2.4375000 0 1 2
0.1125000 1.4625000 2.5125000 0 1 2
0.2625000 1.4625000 2.4375000 0 1 2
0.2625000 1.4625000 2.5125000 0 1 2
0.4125000 1.4625000 2.4375000 0 1 2
0.4125000 1.4625000 2.5125000 0 1 2
0.5625000 1.4625000 2.4375000 0 1 2
0.5625000 1.4625000 2.5125000 0 1 2
0.7125000 1.4625000 2.4375000 0 1 2
0.7125000 1.4625000 2.5125000 0 1 2
0.8625000 1.4625000 2.4375000 0 1 2
1.0125000 1.4625000 2.4375000 0 1 2
2.6625000 1.4625000 2.5125000 0 1 2
2.8125000 1.4625000 2.4375000 0 1 2
2.8125000 1.4625000 2.5125000 0 1 2
2.9625000 1.4625000 2.4375000 0 1 2
2.9625000 1.4625000 2.5125000 0 1 2
3.1125000 1.4625000 2.4375000 0 1 2
3.1125000 1.4625000 2.5125000 0 1 2
3.2625000 1.4625000 2.4375000 0 1 2
3.2625000 1.4625000 2.5125000 0 1 2
3.4125000 1.4625000 2.4375000 0 1 2
3.4125000 1.4625000 2.5125000 0 1 2
3.5625000 1.4625000 2.4375000 0 1 2
3.5625000 1.4625000 2.5125000 0 1 2
3.7125000 1.4625000 2.4375000 0 1 2
3.7125000 1.4625000 2.5125000 0 1 2
3.8625000 1.4625000 2.4375000 0 1 2
3.8625000 1.4625000 2.5125000 0 1 2
4.0125000 1.4625000 2.4375000 0 1 2
4.0125000 1.4625000 2.5125000 0 1 2
4.1625000 1.4625000 2.4375000 0 1 2
4.1625000 1.4625000 2.5125000 0 1 2
4.3125000 1.4625000 2.4375000 0 1 2
4.3125000 1.4625000 2.5125000 0 1 2
4.4625000 1.4625000 2.4375000 0 1 2
4.4625000 1.4625000 2.5125000 0 1 2
4.6125000 1.4625000 2.4375000 0 1 2
4.6125000 1.4625000 2.5125000 0 1 2
4.7625000 1.4625000 2.4375000 0 1 2
4.7625000 1.4625000 2.5125000 0 1 0
4.9125000 1.4625000 0.0375000 0 1 0
4.9125000 1.4625000 0.1125000 0 1 0
5.0625000 1.4625000 0.0375000 0 1 0
5.0625000 1.4625000 0.1125000 0 1 0
4.9125000 1.4625000 0.1875000 0 1 0
4.9125000 1.4625000 0.2625000 0 1 0
5.0625000 1.4625000 0.1875000 0 1 0
5.0625000 1.4625000 0.2625000 0 1 0
5.2125000 1.4625000 0.0375000 0 1 0
5.2125000 1.4625000 0.1125000 0 1 0
5.3625000 1.4625000 0.0375000 0 1 0
5.3625000 1.4625000 0.1125000 0 1 0
5.2125000 1.4625000 0.1875000 0 1 0
5.2125000 1.4625000 0.2625000 0 1 0
5.3625000 1.4625000 0.1875000 0 1 0
5.3625000 1.4625000 0.2625000 0 1 0
4.9125000 1.4625000 0.3375000 0 1 0
4.9125000 1.4625000 0.4125000 0 1 0
5.0625000 1.4625000 0.3375000 0 1 0
5.0625000 1.4625000 0.4125000 0 1 0
4.9125000 1.4625000 0.4875000 0 1 0
4.9125000 1.4625000 0.5625000 0 1 0
5.0625000 1.4625000 0.4875000 0 1 0
5.0625000 1.4625000 0.5625000 0 1 0
5.2125000 1.4625000 0.3375000 0 1 0
5.2125000 1.4625000 0.4125000 0 1 0
5.3625000 1.4625000 0.3375000 0 1 0
5.3625000 1.4625000 0.4125000 0 1 0
5.2125000 1.4625000 0.4875000 0 1 0
5.2125000 1.4625000 0.5625000 0 1 0
5.3625000 1.4625000 0.4875000 0 1 0
5.3625000 1.4625000 0.5625000 0 1 0
5.5125000 1.4625000 0.0375000 0 1 0
5.5125000 1.4625000 0.1125000 0 1 0
5.6625000 1.4625000 0.0375000 0 1 0
5.6625000 1.4625000 0.1125000 0 1 0
5.5125000 1.4625000 0.1875000 0 1 0
5.5125000 1.4625000 0.2625000 0 1 0
5.6625000 1.4625000 0.1875000 0 1 0
5.6625000 1.4625000 0.2625000 0 1 0
5.8125000 1.4625000 0.0375000 0 1 0
5.8125000 1.4625000 0.1125000 0 1 0
5.9625000 1.4625000 0.0375000 0 1 0
5.9625000 1.4625000 0.1125000 0 1 0
5.8125000 1.4625000 0.1875000 0 1 0
5.8125000 1.4625000 0.2625000 0 1 0
5.9625000 1.4625000 0.1875000 0 1 0
5.9625000 1.4625000 0.2625000 0 1 0
5.5125000 1.4625000 0.3375000 0 1 0
5.5125000 1.4625000 0.4125000 0 1 0
5.6625000 1.4625000 0.3375000 0 1 0
5.6625000 1.4625000 0.4125000 0 1 0
5.5125000 1.4625000 0.4875000 0 1 0
5.5125000 1.4625000 0.5625000 0 1 0
5.6625000 1.4625000 0.4875000 0 1 0
5.6625000 1.4625000 0.5625000 0 1 0
5.8125000 1.4625000 0.3375000 0 1 0
5.8125000 1.4625000 0.4125000 0 1 0
5.9625000 1.4625000 0.3375000 0 1 0
5.9625000 1.4625000 0.4125000 0 1 0
5.8125000 1.4625000 0.4875000 0 1 0
5.8125000 1.4625000 0.5625000 0 1 0
5.9625000 1.4625000 0.4875000 0 1 0
5.9625000 1.4625000 0.5625000 0 1 0
4.9125000 1.4625000 0.6375000 0 1 0
4.9125000 1.4625000 0.7125000 0 1 0
5.0625000 1.4625000 0.6375000 0 1 0
5.0625000 1.4625000 0.7125000 0 1 0
4.9125000 1.4625000 0.7875000 0 1 0
4.9125000 1.4625000 0.8625000 0 1 0
5.0625000 1.4625000 0.7875000 0 1 0
5.0625000 1.4625000 0.8625000 0 1 0
5.2125000 1.4625000 0.6375000 0 1 0
5.2125000 1.4625000 0.7125000 0 1 0
5.3625000 1.4625000 0.6375000 0 1 0
5.3625000 1.4625000 0.7125000 0 1 0
5.2125000 1.4625000 0.7875000 0 1 0
5.2125000 1.4625000 0.8625000 0 1 0
5.3625000 1.4625000 0.7875000 0 1 0
5.3625000 1.4625000 0.8625000 0 1 0
4.9125000 1.4625000 0.9375000 0 1 1
4.9125000 1.4625000 1.0125000 0 1 0
5.0625000 1.4625000 0.9375000 0 1 1
5.0625000 1.4625000 1.0125000 0 1 1
4.9125000 1.4625000 1.0875000 0 1 1
4.9125000 1.4625000 1.1625000 0 1 1
5.0625000 1.4625000 1.0875000 0 1 1
5.0625000 1.4625000 1.1625000 0 1 0
5.2125000 1.4625000 0.9375000 0 1 1
5.2125000 1.4625000 1.0125000 0 1 0
5.3625000 1.4625000 0.9375000 0 1 1
5.3625000 1.4625000 1.0125000 0 1 1
5.2125000 1.4625000 1.0875000 0 1 1
5.2125000 1.4625000 1.1625000 0 1 1
5.3625000 1.4625000 1.0875000 0 1 1
5.3625000 1.4625000 1.1625000 0 1 0
5.5125000 1.4625000 0.6375000 0 1 0
5.5125000 1.4625000 0.7125000 0 1 0
5.6625000 1.4625000 0.6375000 0 1 0
5.6625000 1.4625000 0.7125000 0 1 0
5.5125000 1.4625000 0.7875000 0 1 0
5.5125000 1.4625000 0.8625000 0 1 0
5.6625000 1.4625000 0.7875000 0 1 0
5.6625000 1.4625000 0.8625000 0 1 0
5.8125000 1.4625000 0.6375000 0 1 0
5.8125000 1.4625000 0.7125000 0 1 0
5.9625000 1.4625000 0.6375000 0 1 0
5.9625000 1.4625000 0.7125000 0 1 0
5.8125000 1.4625000 0.7875000 0 1 0
5.8125000 1.4625000 0.8625000 0 1 0
5.9625000 1.4625000 0.7875000 0 1 0
5.9625000 1.4625000 0.8625000 0 1 0
5.5125000 1.4625000 0.9375000 0 1 1
5.5125000 1.4625000 1.0125000 0 1 0
5.6625000 1.4625000 0.9375000 0 1 1
5.6625000 1.4625000 1.0125000 0 1 1
5.5125000 1.4625000 1.0875000 0 1 1
5.5125000 1.4625000 1.1625000 0 1 1
5.6625000 1.4625000 1.0875000 0 1 1
5.6625000 1.4625000 1.1625000 0 1 0
5.8125000 1.4625000 0.9375000 0 1 1
5.8125000 1.4625000 1.0125000 0 1 0
5.9625000 1.4625000 0.9375000 0 1 1
5.9625000 1.4625000 1.0125000 0 1 1
5.8125000 1.4625000 1.0875000 0 1 1
5.8125000 1.4625000 1.1625000 0 1 1
5.9625000 1.4625000 1.0875000 0 1 1
5.9625000 1.4625000 1.1625000 0 1 0
6.1125000 1.4625000 0.0375000 0 1 0
6.1125000 1.4625000 0.1125000 0 1 0
6.2625000 1.4625000 0.0375000 0 1 0
6.2625000 1.4625000 0.1125000 0 1 0
6.1125000 1.4625000 0.1875000 0 1 0
6.1125000 1.4625000 0.2625000 0 1 0
6.2625000 1.4625000 0.1875000 0 1 0
6.2625000 1.4625000 0.2625000 0 1 0
6.4125000 1.4625000 0.0375000 0 1 0
6.4125000 1.4625000 0.1125000 0 1 0
6.5625000 1.4625000 0.0375000 0 1 0
6.5625000 1.4625000 0.1125000 0 1 0
6.4125000 1.4625000 0.1875000 0 1 0
6.4125000 1.4625000 0.2625000 0 1 0
6.5625000 1.4625000 0.1875000 0 1 0
6.5625000 1.4625000 0.2625000 0 1 0
6.1125000 1.4625000 0.3375000 0 1 0
6.1125000 1.4625000 0.4125000 0 1 0
6.2625000 1.4625000 0.3375000 0 1 0
6.2625000 1.4625000 0.4125000 0 1 0
6.1125000 1.4625000 0.4875000 0 1 0
6.1125000 1.4625000 0.5625000 0 1 0
6.2625000 1.4625000 0.4875000 0 1 0
6.2625000 1.4625000 0.5625000 0 1 0
6.4125000 1.4625000 0.3375000 0 1 0
6.4125000 1.4625000 0.4125000 0 1 0
6.5625000 1.4625000 0.3375000 0 1 0
6.5625000 1.4625000 0.4125000 0 1 0
6.4125000 1.4625000 0.4875000 0 1 0
6.4125000 1.4625000 0.5625000 0 1 0
6.5625000 1.4625000 0.4875000 0 1 0
6.5625000 1.4625000 0.5625000 0 1 0
6.7125000 1.4625000 0.0375000 0 1 0
6.7125000 1.4625000 0.1125000 0 1 0
6.8625000 1.4625000 0.0375000 0 1 0
6.8625000 1.4625000 0.1125000 0 1 0
6.7125000 1.4625000 0.1875000 0 1 0
6.7125000 1.4625000 0.2625000 0 1 0
6.8625000 1.4625000 0.1875000 0 1 0
6.8625000 1.4625000 0.2625000 0 1 0
7.0125000 1.4625000 0.0375000 0 1 0
7.0125000 1.4625000 0.1125000 0 1 0
7.1625000 1.4625000 0.0375000 0 1 0
7.1625000 1.4625000 0.1125000 0 1 0
7.0125000 1.4625000 0.1875000 0 1 0
7.0125000 1.4625000 0.2625000 0 1 0
7.1625000 1.4625000 0.1875000 0 1 0
7.1625000 1.4625000 0.2625000 0 1 0
6.7125000 1.4625000 0.3375000 0 1 0
6.7125000 1.4625000 0.4125000 0 1 0
6.8625000 1.4625000 0.3375000 0 1 0
6.8625000 1.4625000 0.4125000 0 1 0
6.7125000 1.4625000 0.4875000 0 1 0
6.7125000 1.4625000 0.5625000 0 1 0
6.8625000 1.4625000 0.4875000 0 1 0
6.8625000 1.4625000 0.5625000 0 1 0
7.0125000 1.4625000 0.3375000 0 1 0
7.0125000 1.4625000 0.4125000 0 1 0
7.1625000 1.4625000 0.3375000 0 1 0
7.1625000 1.4625000 0.4125000 0 1 0
7.0125000 1.4625000 0.4875000 0 1 0
7.0125000 1.4625000 0.5625000 0 1 0
7.1625000 1.4625000 0.4875000 0 1 0
7.1625000 1.4625000 0.5625000 0 1 0
6.1125000 1.4625000 0.6375000 0 1 0
6.1125000 1.4625000 0.7125000 0 1 0
6.2625000 1.4625000 0.6375000 0 1 0
6.2625000 1.4625000 0.7125000 0 1 0
6.1125000 1.4625000 0.7875000 0 1 0
6.1125000 1.4625000 0.8625000 0 1 0
6.2625000 1.4625000 0.7875000 0 1 0
6.2625000 1.4625000 0.8625000 0 1 0
6.4125000 1.4625000 0.6375000 0 1 0
6.4125000 1.4625000 0.7125000 0 1 0
6.5625000 1.4625000 0.6375000 0 1 0
6.5625000 1.4625000 0.7125000 0 1 0
6.4125000 1.4625000 0.7875000 0 1 0
6.4125000 1.4625000 0.8625000 0 1 0
6.5625000 1.4625000 0.7875000 0 1 0
6.5625000 1.4625000 0.8625000 0 1 0
6.1125000 1.4625000 0.9375000 0 1 1
6.1125000 1.4625000 1.0125000 0 1 0
6.2625000 1.4625000 0.9375000 0 1 1
6.2625000 1.4625000 1.0125000 0 1 1
6.1125000 1.4625000 1.0875000 0 1 1
6.1125000 1.4625000 1.1625000 0 1 1
6.2625000 1.4625000 1.0875000 0 1 1
6.2625000 1.4625000 1.1625000 0 1 0
6.4125000 1.4625000 0.9375000 0 1 1
6.4125000 1.4625000 1.0125000 0 1 0
6.5625000 1.4625000 0.9375000 0 1 1
6.5625000 1.4625000 1.0125000 0 1 1
6.4125000 1.4625000 1.0875000 0 1 1
6.4125000 1.4625000 1.1625000 0 1 1
6.5625000 1.4625000 1.0875000 0 1 1
6.5625000 1.4625000 1.1625000 0 1 0
6.7125000 1.4625000 0.6375000 0 1 0
6.7125000 1.4625000 0.7125000 0 1 0
6.8625000 1.4625000 0.6375000 0 1 0
6.8625000 1.4625000 0.7125000 0 1 0
6.7125000 1.4625000 0.7875000 0 1 0
6.7125000 1.4625000 0.8625000 0 1 0
6.8625000 1.4625000 0.7875000 0 1 0
6.8625000 1.4625000 0.8625000 0 1 0
7.0125000 1.4625000 0.6375000 0 1 0
7.0125000 1.4625000 0.7125000 0 1 0
7.1625000 1.4625000 0.6375000 0 1 0
7.1625000 1.4625000 0.7125000 0 1 0
7.0125000 1.4625000 0.7875000 0 1 0
7.0125000 1.4625000 0.8625000 0 1 0
7.1625000 1.4625000 0.7875000 0 1 0
7.1625000 1.4625000 0.8625000 0 1 0
6.7125000 1.4625000 0.9375000 0 1 1
6.7125000 1.4625000 1.0125000 0 1 0
6.8625000 1.4625000 0.9375000 0 1 1
6.8625000 1.4625000 1.0125000 0 1 1
6.7125000 1.4625000 1.0875000 0 1 1
6.7125000 1.4625000 1.1625000 0 1 1
6.8625000 1.4625000 1.0875000 0 1 1
6.8625000 1.4625000 1.1625000 0 1 0
7.0125000 1.4625000 0.9375000 0 1 1
7.0125000 1.4625000 1.0125000 0 1 0
7.1625000 1.4625000 0.9375000 0 1 1
7.1625000 1.4625000 1.0125000 0 1 1
7.0125000 1.4625000 1.0875000 0 1 1
7.0125000 1.4625000 1.1625000 0 1 1
7.1625000 1.4625000 1.0875000 0 1 1
7.1625000 1.4625000 1.1625000 0 1 1
4.9125000 1.4625000 1.2375000 0 1 1
4.9125000 1.4625000 1.3125000 0 1 1
5.0625000 1.4625000 1.2375000 0 1 1
5.0625000 1.4625000 1.3125000 0 1 1
4.9125000 1.4625000 1.3875000 0 1 1
4.9125000 1.4625000 1.4625000 0 1 1
5.0625000 1.4625000 1.3875000 0 1 1
5.0625000 1.4625000 1.4625000 0 1 1
5.2125000 1.4625000 1.2375000 0 1 1
5.2125000 1.4625000 1.3125000 0 1 1
5.3625000 1.4625000 1.2375000 0 1 1
5.3625000 1.4625000 1.3125000 0 1 1
5.2125000 1.4625000 1.3875000 0 1 1
5.2125000 1.4625000 1.4625000 0 1 1
5.3625000 1.4625000 1.3875000 0 1 1
5.3625000 1.4625000 1.4625000 0 1 1
4.9125000 1.4625000 1.5375000 0 1 1
4.9125000 1.4625000 1.6125000 0 1 1
5.0625000 1.4625000 1.5375000 0 1 1
5.0625000 1.4625000 1.6125000 0 1 1
4.9125000 1.4625000 1.6875000 0 1 1
4.9125000 1.4625000 1.7625000 0 1 1
5.0625000 1.4625000 1.6875000 0 1 1
5.0625000 1.4625000 1.7625000 0 1 1
5.2125000 1.4625000 1.5375000 0 1 1
5.2125000 1.4625000 1.6125000 0 1 1
5.3625000 1.4625000 1.5375000 0 1 1
5.3625000 1.4625000 1.6125000 0 1 1
5.2125000 1.4625000 1.6875000 0 1 1
5.2125000 1.4625000 1.7625000 0 1 1
5.3625000 1.4625000 1.6875000 0 1 1
5.3625000 1.4625000 1.7625000 0 1 1
5.5125000 1.4625000 1.2375000 0 1 1
5.5125000 1.4625000 1.3125000 0 1 1
5.6625000 1.4625000 1.2375000 0 1 1
5.6625000 1.4625000 1.3125000 0 1 1
5.5125000 1.4625000 1.3875000 0 1 1
5.5125000 1.4625000 1.4625000 0 1 1
5.6625000 1.4625000 1.3875000 0 1 1
5.6625000 1.4625000 1.4625000 0 1 1
5.8125000 1.4625000 1.2375000 0 1 1
5.8125000 1.4625000 1.3125000 0 1 1
5.9625000 1.4625000 1.2375000 0 1 1
5.9625000 1.4625000 1.3125000 0 1 1
5.8125000 1.4625000 1.3875000 0 1 1
5.8125000 1.4625000 1.4625000 0 1 1
5.9625000 1.4625000 1.3875000 0 1 1
5.9625000 1.4625000 1.4625000 0 1 1
5.5125000 1.4625000 1.5375000 0 1 1
5.5125000 1.4625000 1.6125000 0 1 1
5.6625000 1.4625000 1.5375000 0 1 1
5.6625000 1.4625000 1.6125000 0 1 1
5.5125000 1.4625000 1.6875000 0 1 1
5.5125000 1.4625000 1.7625000 0 1 1
5.6625000 1.4625000 1.6875000 0 1 1
5.6625000 1.4625000 1.7625000 0 1 1
5.8125000 1.4625000 1.5375000 0 1 1
5.8125000 1.4625000 1.6125000 0 1 1
5.9625000 1.4625000 1.5375000 0 1 1
5.9625000 1.4625000 1.6125000 0 1 1
5.8125000 1.4625000 1.6875000 0 1 1
5.8125000 1.4625000 1.7625000 0 1 1
5.9625000 1.4625000 1.6875000 0 1 1
5.9625000 1.4625000 1.7625000 0 1 1
4.9125000 1.4625000 1.8375000 0 1 1
4.9125000 1.4625000 1.9125000 0 1 1
5.0625000 1.4625000 1.8375000 0 1 1
5.0625000 1.4625000 1.9125000 0 1 1
4.9125000 1.4625000 1.9875000 0 1 2
4.9125000 1.4625000 2.0625000 0 1 1
5.0625000 1.4625000 1.9875000 0 1 2
5.0625000 1.4625000 2.0625000 0 1 1
5.2125000 1.4625000 1.8375000 0 1 1
5.2125000 1.4625000 1.9125000 0 1 1
5.3625000 1.4625000 1.8375000 0 1 1
5.3625000 1.4625000 1.9125000 0 1 1
5.2125000 1.4625000 1.9875000 0 1 2
5.2125000 1.4625000 2.0625000 0 1 1
5.3625000 1.4625000 1.9875000 0 1 2
5.3625000 1.4625000 2.0625000 0 1 2
4.9125000 1.4625000 2.1375000 0 1 2
4.9125000 1.4625000 2.2125000 0 1 2
5.0625000 1.4625000 2.1375000 0 1 2
5.0625000 1.4625000 2.2125000 0 1 2
4.9125000 1.4625000 2.2875000 0 1 2
4.9125000 1.4625000 2.3625000 0 1 2
5.0625000 1.4625000 2.2875000 0 1 2
5.0625000 1.4625000 2.3625000 0 1 2
5.2125000 1.4625000 2.1375000 0 1 2
5.2125000 1.4625000 2.2125000 0 1 2
5.3625000 1.4625000 2.1375000 0 1 2
5.3625000 1.4625000 2.2125000 0 1 2
5.2125000 1.4625000 2.2875000 0 1 2
5.2125000 1.4625000 2.3625000 0 1 2
5.3625000 1.4625000 2.2875000 0 1 2
5.3625000 1.4625000 2.3625000 0 1 1
5.5125000 1.4625000 1.8375000 0 1 1
5.5125000 1.4625000 1.9125000 0 1 1
5.6625000 1.4625000 1.8375000 0 1 1
5.6625000 1.4625000 1.9125000 0 1 1
5.5125000 1.4625000 1.9875000 0 1 2
5.5125000 1.4625000 2.0625000 0 1 1
5.6625000 1.4625000 1.9875000 0 1 2
5.6625000 1.4625000 2.0625000 0 1 1
5.8125000 1.4625000 1.8375000 0 1 1
5.8125000 1.4625000 1.9125000 0 1 1
5.9625000 1.4625000 1.8375000 0 1 1
5.9625000 1.4625000 1.9125000 0 1 1
5.8125000 1.4625000 1.9875000 0 1 2
5.8125000 1.4625000 2.0625000 0 1 1
5.9625000 1.4625000 1.9875000 0 1 2
5.9625000 1.4625000 2.0625000 0 1 2
5.5125000 1.4625000 2.1375000 0 1 2
5.5125000 1.4625000 2.2125000 0 1 2
5.6625000 1.4625000 2.1375000 0 1 2
5.6625000 1.4625000 2.2125000 0 1 2
5.5125000 1.4625000 2.2875000 0 1 2
5.5125000 1.4625000 2.3625000 0 1 2
5.6625000 1.4625000 2.2875000 0 1 2
5.6625000 1.4625000 2.3625000 0 1 2
5.8125000 1.4625000 2.1375000 0 1 2
5.8125000 1.4625000 2.2125000 0 1 2
5.9625000 1.4625000 2.1375000 0 1 2
5.9625000 1.4625000 2.2125000 0 1 2
5.8125000 1.4625000 2.2875000 0 1 2
5.8125000 1.4625000 2.3625000 0 1 2
5.9625000 1.4625000 2.2875000 0 1 2
5.9625000 1.4625000 2.3625000 0 1 1
6.1125000 1.4625000 1.2375000 0 1 1
6.1125000 1.4625000 1.3125000 0 1 1
6.2625000 1.4625000 1.2375000 0 1 1
6.2625000 1.4625000 1.3125000 0 1 1
6.1125000 1.4625000 1.3875000 0 1 1
6.1125000 1.4625000 1.4625000 0 1 1
6.2625000 1.4625000 1.3875000 0 1 1
6.2625000 1.4625000 1.4625000 0 1 1
6.4125000 1.4625000 1.2375000 0 1 1
6.4125000 1.4625000 1.3125000 0 1 1
6.5625000 1.4625000 1.2375000 0 1 1
6.5625000 1.4625000 1.3125000 0 1 1
6.4125000 1.4625000 1.3875000 0 1 1
6.4125000 1.4625000 1.4625000 0 1 1
6.5625000 1.4625000 1.3875000 0 1 1
6.5625000 1.4625000 1.4625000 0 1 1
6.1125000 1.4625000 1.5375000 0 1 1
6.1125000 1.4625000 1.6125000 0 1 1
6.2625000 1.4625000 1.5375000 0 1 1
6.2625000 1.4625000 1.6125000 0 1 1
6.1125000 1.4625000 1.6875000 0 1 1
6.1125000 1.4625000 1.7625000 0 1 1
6.2625000 1.4625000 1.6875000 0 1 1
6.2625000 1.4625000 1.7625000 0 1 1
6.4125000 1.4625000 1.5375000 0 1 1
6.4125000 1.4625000 1.6125000 0 1 1
6.5625000 1.4625000 1.5375000 0 1 1
6.5625000 1.4625000 1.6125000 0 1 1
6.4125000 1.4625000 1.6875000 0 1 1
6.4125000 1.4625000 1.7625000 0 1 1
6.5625000 1.4625000 1.6875000 0 1 1
6.5625000 1.4625000 1.7625000 0 1 1
6.7125000 1.4625000 1.2375000 0 1 1
6.7125000 1.4625000 1.3125000 0 1 1
6.8625000 1.4625000 1.2375000 0 1 1
6.8625000 1.4625000 1.3125000 0 1 1
6.7125000 1.4625000 1.3875000 0 1 1
6.7125000 1.4625000 1.4625000 0 1 1
6.8625000 1.4625000 1.3875000 0 1 1
6.8625000 1.4625000 1.4625000 0 1 1
7.0125000 1.4625000 1.2375000 0 1 1
7.0125000 1.4625000 1.3125000 0 1 1
7.1625000 1.4625000 1.2375000 0 1 1
7.1625000 1.4625000 1.3125000 0 1 1
7.0125000 1.4625000 1.3875000 0 1 1
7.0125000 1.4625000 1.4625000 0 1 1
7.1625000 1.4625000 1.3875000 0 1 1
7.1625000 1.4625000 1.4625000 0 1 1
6.7125000 1.4625000 1.5375000 0 1 1
6.7125000 1.4625000 1.6125000 0 1 1
6.8625000 1.4625000 1.5375000 0 1 1
6.8625000 1.4625000 1.6125000 0 1 1
6.7125000 1.4625000 1.6875000 0 1 1
6.7125000 1.4625000 1.7625000 0 1 1
6.8625000 1.4625000 1.6875000 0 1 1
6.8625000 1.4625000 1.7625000 0 1 1
7.0125000 1.4625000 1.5375000 0 1 1
7.0125000 1.4625000 1.6125000 0 1 1
7.1625000 1.4625000 1.5375000 0 1 1
7.1625000 1.4625000 1.6125000 0 1 1
7.0125000 1.4625000 1.6875000 0 1 1
7.0125000 1.4625000 1.7625000 0 1 1
7.1625000 1.4625000 1.6875000 0 1 1
7.1625000 1.4625000 1.7625000 0 1 1
6.1125000 1.4625000 1.8375000 0 1 1
6.1125000 1.4625000 1.9125000 0 1 1
